# .PCD v0.7 - Point Cloud Data file format
VERSION 0.7
FIELDS x y z rgba
SIZE 4 4 4 4
TYPE F F F U
COUNT 1 1 1 1
WIDTH 1048
HEIGHT 1
VIEWPOINT 0 0 0 1 0 0 0
POINTS 1048
DATA ascii
-0.12529641 0.13538739 0.96100003 4285223481
-0.12322868 0.13496475 0.95800006 4285552184
-0.12117146 0.13454211 0.95500004 4285880635
-0.11924987 0.13426034 0.95300007 4286077759
-0.1172119 0.1338377 0.95000005 4286274365
-0.11530605 0.13355593 0.94800007 4286405948
-0.11364698 0.13355593 0.94800007 4286537019
-0.11127911 0.13271064 0.94200003 4286668603
-0.10939777 0.13242888 0.94000006 4286799675
-0.10775269 0.13242888 0.94000006 4286800187
-0.10576896 0.13200624 0.93700004 4286800445
-0.10412914 0.13200624 0.93700004 4286735167
-0.10227055 0.13172446 0.93500006 4286734395
-0.10031133 0.13130182 0.93200004 4286668343
-0.09868025 0.13130182 0.93200004 4286667061
-0.096840918 0.13102007 0.93000007 4286273332
-0.094906196 0.13059741 0.92700005 4285879344
-0.093283869 0.13059741 0.92700005 4286010413
-0.091463782 0.13031566 0.92500007 4286207280
-0.089844957 0.13031566 0.92500007 4286273075
-0.087939993 0.129893 0.92200005 4286404404
-0.08613915 0.12961124 0.92000002 4286470453
-0.084529065 0.12961124 0.92000002 4286601524
-0.082918994 0.12961124 0.92000002 4286601780
-0.08104378 0.1291886 0.91700006 4286601524
-0.079438955 0.1291886 0.91700006 4286601780
-0.077834122 0.1291886 0.91700006 4286601524
-0.076229297 0.1291886 0.91700006 4286602037
-0.074461706 0.12890683 0.91500002 4286602039
-0.072701134 0.12862508 0.91300005 4286537018
-0.071103297 0.12862508 0.91300005 4286470967
-0.069505475 0.12862508 0.91300005 4286536500
-0.067907646 0.12862508 0.91300005 4286667317
-0.066091932 0.12820242 0.91000003 4286470454
-0.064499356 0.12820242 0.91000003 4286273587
-0.062906779 0.12820242 0.91000003 4286142257
-0.061314199 0.12820242 0.91000003 4286076723
-0.059721623 0.12820242 0.91000003 4286011190
-0.058129046 0.12820242 0.91000003 4285945397
-0.05653647 0.12820242 0.91000003 4285880117
-0.054823142 0.12792066 0.90800005 4285814582
-0.053234063 0.12792066 0.90800005 4285683512
-0.051644988 0.12792066 0.90800005 4285617722
-0.05005591 0.12792066 0.90800005 4285421117
-0.048466835 0.12792066 0.90800005 4285290044
-0.13183385 0.13863817 0.97200006 4283844927
-0.12973112 0.13821028 0.96900004 4284106558
-0.12763889 0.13778239 0.96600002 4284369469
-0.12529641 0.13706923 0.96100003 4284698169
-0.12361457 0.13706923 0.96100003 4285092406
-0.1215521 0.13664134 0.95800006 4285486138
-0.11950013 0.13621344 0.95500004 4285748798
-0.1172119 0.13550028 0.95000005 4286011452
-0.11554931 0.13550028 0.95000005 4286142779
-0.11364698 0.13521503 0.94800007 4286339898
-0.11127911 0.13435923 0.94200003 4286471226
-0.10939777 0.13407397 0.94000006 4286602810
-0.10740879 0.13364606 0.93700004 4286603067
-0.10576896 0.13364606 0.93700004 4286668859
-0.10390688 0.1333608 0.93500006 4286668859
-0.10227055 0.1333608 0.93500006 4286734650
-0.10031133 0.1329329 0.93200004 4286733882
-0.098468497 0.13264765 0.93000007 4286798648
-0.096528523 0.13221975 0.92700005 4286470199
-0.094906196 0.13221975 0.92700005 4286207280
-0.093082614 0.13193448 0.92500007 4286207274
-0.091167144 0.13150659 0.92200005 4286273325
-0.089553565 0.13150659 0.92200005 4286338609
-0.08774922 0.13122132 0.92000002 4286404403
-0.08613915 0.13122132 0.92000002 4286469941
-0.08425343 0.13079342 0.91700006 4286535476
-0.082648605 0.13079342 0.91700006 4286535475
-0.080867015 0.13050815 0.91500002 4286535475
-0.079265691 0.13050815 0.91500002 4286469939
-0.077664368 0.13050815 0.91500002 4286469940
-0.075896785 0.13022289 0.91300005 4286404661
-0.074054815 0.129795 0.91000003 4286405433
-0.072462238 0.129795 0.91000003 4286405438
-0.070869662 0.129795 0.91000003 4286405432
-0.069277085 0.129795 0.91000003 4286470963
-0.067684509 0.129795 0.91000003 4286536499
-0.066091932 0.129795 0.91000003 4286404916
-0.064357601 0.12950975 0.90800005 4286273329
-0.062768526 0.12950975 0.90800005 4286207790
-0.061179444 0.12950975 0.90800005 4286142256
-0.059590373 0.12950975 0.90800005 4286076723
-0.058001295 0.12950975 0.90800005 4286011187
-0.056412216 0.12950975 0.90800005 4285945907
-0.054823142 0.12950975 0.90800005 4285946163
-0.053234063 0.12950975 0.90800005 4285814836
-0.051644988 0.12950975 0.90800005 4285749048
-0.05005591 0.12950975 0.90800005 4285617724
-0.0483067 0.12908183 0.90500003 4285487164
-0.046722874 0.12908183 0.90500003 4285224509
-0.12973112 0.13990612 0.96900004 4283844671
-0.12803529 0.13990612 0.96900004 4283975741
-0.12555718 0.13903981 0.96300006 4284173113
-0.12361457 0.13875106 0.96100003 4284633653
-0.1215521 0.13831791 0.95800006 4285157944
-0.11950013 0.13788477 0.95500004 4285486140
-0.1172119 0.13716286 0.95000005 4285814075
-0.11530605 0.13687409 0.94800007 4286011451
-0.11364698 0.13687409 0.94800007 4286208059
-0.11127911 0.1360078 0.94200003 4286339643
-0.10939777 0.13571903 0.94000006 4286470971
-0.10740879 0.1352859 0.93700004 4286537020
-0.10554321 0.13499713 0.93500006 4286602555
-0.10390688 0.13499713 0.93500006 4286668347
-0.10194241 0.13456398 0.93200004 4286799677
-0.10009608 0.13427523 0.93000007 4286865471
-0.098468497 0.13427523 0.93000007 4286930235
-0.096528523 0.13384207 0.92700005 4286732599
-0.094701439 0.13355331 0.92500007 4286601009
-0.092780724 0.13312016 0.92200005 4286469420
-0.090969376 0.13283139 0.92000002 4286404142
-0.089359306 0.13283139 0.92000002 4286404400
-0.08774922 0.13283139 0.92000002 4286469937
-0.085858263 0.13239825 0.91700006 4286469938
-0.08425343 0.13239825 0.91700006 4286535217
-0.082468346 0.13210949 0.91500002 4286535216
-0.080867015 0.13210949 0.91500002 4286534961
-0.079092436 0.13182072 0.91300005 4286469171
-0.077494606 0.13182072 0.91300005 4286403891
-0.075896785 0.13182072 0.91300005 4286338612
-0.074054815 0.13138758 0.91000003 4286273590
-0.072462238 0.13138758 0.91000003 4286339641
-0.070869662 0.13138758 0.91000003 4286404918
-0.069124825 0.13109882 0.90800005 4286405427
-0.067535758 0.13109882 0.90800005 4286470707
-0.065946676 0.13109882 0.90800005 4286404916
-0.064144962 0.13066567 0.90500003 4286338866
-0.062561139 0.13066567 0.90500003 4286273328
-0.060977314 0.13066567 0.90500003 4286208049
-0.059393484 0.13066567 0.90500003 4286142770
-0.057809658 0.13066567 0.90500003 4286142514
-0.056225836 0.13066567 0.90500003 4286142771
-0.054642007 0.13066567 0.90500003 4286142773
-0.053058181 0.13066567 0.90500003 4286011703
-0.051474351 0.13066567 0.90500003 4285945912
-0.049890529 0.13066567 0.90500003 4285814586
-0.0483067 0.13066567 0.90500003 4285683515
-0.046722874 0.13066567 0.90500003 4285486908
-0.045139048 0.13066567 0.90500003 4285290047
-0.12529641 0.14043288 0.96100003 4283713337
-0.12361457 0.14043288 0.96100003 4284107317
-0.1215521 0.13999449 0.95800006 4284567351
-0.11950013 0.1395561 0.95500004 4284961082
-0.11758205 0.13926384 0.95300007 4285420347
-0.11530605 0.13853317 0.94800007 4285683004
-0.11364698 0.13853317 0.94800007 4286010684
-0.11127911 0.13765639 0.94200003 4286142268
-0.10939777 0.13736412 0.94000006 4286273853
-0.10740879 0.13692571 0.93700004 4286339646
-0.10554321 0.13663346 0.93500006 4286470717
-0.10357349 0.13619506 0.93200004 4286602044
-0.10194241 0.13619506 0.93200004 4286733632
-0.10009608 0.13590281 0.93000007 4286799685
-0.098468497 0.13590281 0.93000007 4286865982
-0.096320271 0.13517213 0.92500007 4286733623
-0.094394296 0.13473375 0.92200005 4286667058
-0.092579462 0.13444147 0.92000002 4286601262
-0.090969376 0.13444147 0.92000002 4286535727
-0.089359306 0.13444147 0.92000002 4286535728
-0.087463088 0.13400309 0.91700006 4286535727
-0.085858263 0.13400309 0.91700006 4286535471
-0.084069677 0.13371082 0.91500002 4286535726
-0.082468346 0.13371082 0.91500002 4286535214
-0.080690265 0.13341856 0.91300005 4286534961
-0.078832544 0.13298015 0.91000003 4286469172
-0.077239968 0.13298015 0.91000003 4286403891
-0.075647391 0.13298015 0.91000003 4286272819
-0.073892064 0.13268788 0.90800005 4286141747
-0.072302982 0.13268788 0.90800005 4286207540
-0.070713907 0.13268788 0.90800005 4286339124
-0.069124825 0.13268788 0.90800005 4286339124
-0.067535758 0.13268788 0.90800005 4286404916
-0.065728791 0.1322495 0.90500003 4286339125
-0.064144962 0.1322495 0.90500003 4286339123
-0.062422883 0.13195723 0.90300006 4286273330
-0.060842559 0.13195723 0.90300006 4286273841
-0.059262231 0.13195723 0.90300006 4286208305
-0.057681907 0.13195723 0.90300006 4286208306
-0.056101579 0.13195723 0.90300006 4286208307
-0.054521251 0.13195723 0.90300006 4286208566
-0.052940927 0.13195723 0.90300006 4286142778
-0.0513606 0.13195723 0.90300006 4286077241
-0.049890529 0.1322495 0.90500003 4285945912
-0.048199948 0.13195723 0.90300006 4285880378
-0.046619624 0.13195723 0.90300006 4285683516
-0.045039296 0.13195723 0.90300006 4285487166
-0.043458972 0.13195723 0.90300006 4285290048
-0.041785888 0.13166498 0.90100002 4285093181
-0.040209059 0.13166498 0.90100002 4284896571
-0.12529641 0.14211473 0.96100003 4283318843
-0.12361457 0.14211473 0.96100003 4283646260
-0.1215521 0.14167108 0.95800006 4284041271
-0.11950013 0.14122742 0.95500004 4284501562
-0.11758205 0.14093167 0.95300007 4285026362
-0.11554931 0.14048801 0.95000005 4285420602
-0.11364698 0.14019226 0.94800007 4285813818
-0.11127911 0.13930495 0.94200003 4285945402
-0.10939777 0.13900921 0.94000006 4286142266
-0.10740879 0.13856556 0.93700004 4286273851
-0.10554321 0.1382698 0.93500006 4286404666
-0.10357349 0.13782614 0.93200004 4286535738
-0.10172365 0.13753039 0.93000007 4286667581
-0.10009608 0.13753039 0.93000007 4286734400
-0.098150857 0.13708673 0.92700005 4286800189
-0.096320271 0.13679098 0.92500007 4286800442
-0.094394296 0.13634732 0.92200005 4286799414
-0.092579462 0.13605155 0.92000002 4286733363
-0.090969376 0.13605155 0.92000002 4286667570
-0.089067914 0.13560791 0.91700006 4286667314
-0.087463088 0.13560791 0.91700006 4286667057
-0.085858263 0.13560791 0.91700006 4286601265
-0.084069677 0.13531214 0.91500002 4286535472
-0.082288086 0.13501638 0.91300005 4286535216
-0.080425121 0.13457273 0.91000003 4286534961
-0.078832544 0.13457273 0.91000003 4286469170
-0.077239968 0.13457273 0.91000003 4286403633
-0.075647391 0.13457273 0.91000003 4286207281
-0.073892064 0.13427697 0.90800005 4286075952
-0.072302982 0.13427697 0.90800005 4286207279
-0.070713907 0.13427697 0.90800005 4286338353
-0.068896443 0.13383332 0.90500003 4286338867
-0.067163862 0.13353756 0.90300006 4286404403
-0.065583535 0.13353756 0.90300006 4286404659
-0.064003207 0.13353756 0.90300006 4286404658
-0.062284622 0.13324179 0.90100002 4286404658
-0.060707796 0.13324179 0.90100002 4286404914
-0.059130974 0.13324179 0.90100002 4286339635
-0.057554148 0.13324179 0.90100002 4286274099
-0.055977318 0.13324179 0.90100002 4286274100
-0.054400496 0.13324179 0.90100002 4286273845
-0.052823666 0.13324179 0.90100002 4286208311
-0.051246844 0.13324179 0.90100002 4286208310
-0.049670015 0.13324179 0.90100002 4286143030
-0.048093192 0.13324179 0.90100002 4286077239
-0.046516363 0.13324179 0.90100002 4285880377
-0.04493954 0.13324179 0.90100002 4285749049
-0.043362711 0.13324179 0.90100002 4285486906
-0.041785888 0.13324179 0.90100002 4285290042
-0.040209059 0.13324179 0.90100002 4285093434
-0.038503606 0.13279815 0.89800006 4284962107
-0.12322868 0.14334765 0.95800006 4283253044
-0.12117146 0.14289875 0.95500004 4283712567
-0.11924987 0.14259949 0.95300007 4284041274
-0.1172119 0.1421506 0.95000005 4284435769
-0.11530605 0.14185134 0.94800007 4284829496
-0.11328734 0.14140244 0.94500005 4285223224
-0.11127911 0.14095354 0.94200003 4285485880
-0.10939777 0.14065428 0.94000006 4285814328
-0.10740879 0.14020538 0.93700004 4286011192
-0.10576896 0.14020538 0.93700004 4286208056
-0.10390688 0.13990612 0.93500006 4286339129
-0.10194241 0.13945723 0.93200004 4286535738
-0.10009608 0.13915797 0.93000007 4286602556
-0.098150857 0.13870907 0.92700005 4286668861
-0.096007876 0.1379609 0.92200005 4286800190
-0.094394296 0.1379609 0.92200005 4286996795
-0.092579462 0.13766164 0.92000002 4286865209
-0.090672746 0.13721274 0.91700006 4286734135
-0.089067914 0.13721274 0.91700006 4286667573
-0.087463088 0.13721274 0.91700006 4286667316
-0.085671 0.13691346 0.91500002 4286535732
-0.084069677 0.13691346 0.91500002 4286469683
-0.082288086 0.1366142 0.91300005 4286469683
-0.080425121 0.13616531 0.91000003 4286535474
-0.078832544 0.13616531 0.91000003 4286403889
-0.077239968 0.13616531 0.91000003 4286338352
-0.075481132 0.13586605 0.90800005 4286206767
-0.073892064 0.13586605 0.90800005 4286140972
-0.072302982 0.13586605 0.90800005 4286206506
-0.070713907 0.13586605 0.90800005 4286272302
-0.068896443 0.13541715 0.90500003 4286272562
-0.067163862 0.13511789 0.90300006 4286273074
-0.065438278 0.13481861 0.90100002 4286273330
-0.063861452 0.13481861 0.90100002 4286339378
-0.062284622 0.13481861 0.90100002 4286339378
-0.060505666 0.13436973 0.89800006 4286339636
-0.058934093 0.13436973 0.89800006 4286339382
-0.057362512 0.13436973 0.89800006 4286339893
-0.055790938 0.13436973 0.89800006 4286339381
-0.054219365 0.13436973 0.89800006 4286339637
-0.052647788 0.13436973 0.89800006 4286274101
-0.051076211 0.13436973 0.89800006 4286274356
-0.049504638 0.13436973 0.89800006 4286208564
-0.048093192 0.13481861 0.90100002 4286143029
-0.046516363 0.13481861 0.90100002 4286011702
-0.04493954 0.13481861 0.90100002 4285880373
-0.043362711 0.13481861 0.90100002 4285683509
-0.041785888 0.13481861 0.90100002 4285486903
-0.040209059 0.13481861 0.90100002 4285290042
-0.038503606 0.13436973 0.89800006 4285158970
-0.12117146 0.1445701 0.95500004 4283450172
-0.11924987 0.14426734 0.95300007 4283646780
-0.11758205 0.14426734 0.95300007 4283909947
-0.11530605 0.14351042 0.94800007 4284304443
-0.11364698 0.14351042 0.94800007 4284698169
-0.11127911 0.14260212 0.94200003 4285092663
-0.10939777 0.14229935 0.94000006 4285551672
-0.10775269 0.14229935 0.94000006 4285814841
-0.10576896 0.14184521 0.93700004 4286076984
-0.10357349 0.14108829 0.93200004 4286208568
-0.10194241 0.14108829 0.93200004 4286404922
-0.10009608 0.14078555 0.93000007 4286471484
-0.098150857 0.14033139 0.92700005 4286537533
-0.096320271 0.14002863 0.92500007 4286866494
-0.094394296 0.13957448 0.92200005 4287258942
-0.092579462 0.13927171 0.92000002 4286997054
-0.090672746 0.13881756 0.91700006 4286799675
-0.089067914 0.13881756 0.91700006 4286733368
-0.087272324 0.13851479 0.91500002 4286667318
-0.085671 0.13851479 0.91500002 4286535732
-0.083885916 0.13821203 0.91300005 4286404402
-0.082017697 0.13775788 0.91000003 4286469937
-0.080425121 0.13775788 0.91000003 4286535473
-0.078659289 0.13745512 0.90800005 4286404402
-0.077070214 0.13745512 0.90800005 4286338353
-0.075481132 0.13745512 0.90800005 4286272048
-0.073892064 0.13745512 0.90800005 4286271790
-0.072064094 0.13700096 0.90500003 4286206509
-0.070480272 0.13700096 0.90500003 4286206511
-0.06874419 0.13669822 0.90300006 4286206769
-0.067015097 0.13639544 0.90100002 4286207025
-0.065438278 0.13639544 0.90100002 4286273073
-0.063861452 0.13639544 0.90100002 4286338866
-0.062284622 0.13639544 0.90100002 4286339636
-0.060505666 0.1359413 0.89800006 4286339380
-0.058934093 0.1359413 0.89800006 4286404917
-0.05723476 0.13563854 0.89600003 4286470453
-0.055666681 0.13563854 0.89600003 4286470454
-0.054098606 0.13563854 0.89600003 4286470710
-0.052413274 0.13533576 0.89400005 4286405430
-0.0508487 0.13533576 0.89400005 4286339637
-0.049284123 0.13533576 0.89400005 4286274100
-0.047826305 0.13563854 0.89600003 4286274100
-0.04625823 0.13563854 0.89600003 4286143029
-0.044690154 0.13563854 0.89600003 4286011701
-0.043122079 0.13563854 0.89600003 4285880373
-0.041554004 0.13563854 0.89600003 4285749046
-0.039985929 0.13563854 0.89600003 4285552440
-0.038417853 0.13563854 0.89600003 4285355577
-0.036849774 0.13563854 0.89600003 4285224250
-0.11887448 0.14547576 0.95000005 4283581502
-0.1172119 0.14547576 0.95000005 4283712574
-0.11554931 0.14547576 0.95000005 4283975742
-0.11364698 0.1451695 0.94800007 4284238650
-0.1116335 0.14471011 0.94500005 4284632631
-0.10963053 0.14425069 0.94200003 4285026360
-0.10775269 0.14394444 0.94000006 4285354810
-0.10576896 0.14348504 0.93700004 4285683257
-0.10390688 0.14317878 0.93500006 4285880120
-0.10172365 0.14241311 0.93000007 4286077242
-0.10009608 0.14241311 0.93000007 4286208828
-0.098150857 0.14195371 0.92700005 4286340413
-0.096320271 0.14164746 0.92500007 4286603070
-0.094394296 0.14118806 0.92200005 4286931009
-0.092579462 0.14088178 0.92000002 4286799940
-0.090672746 0.14042239 0.91700006 4286734144
-0.089067914 0.14042239 0.91700006 4286668092
-0.087272324 0.14011613 0.91500002 4286668088
-0.085671 0.14011613 0.91500002 4286602037
-0.083885916 0.13980986 0.91300005 4286536498
-0.082017697 0.13935046 0.91000003 4286535728
-0.080425121 0.13935046 0.91000003 4286535474
-0.078659289 0.1390442 0.90800005 4286469940
-0.077070214 0.1390442 0.90800005 4286469938
-0.075481132 0.1390442 0.90800005 4286403377
-0.073647924 0.13858479 0.90500003 4286337328
-0.072064094 0.13858479 0.90500003 4286272048
-0.070480272 0.13858479 0.90500003 4286207024
-0.06874419 0.13827854 0.90300006 4286141233
-0.067015097 0.13797227 0.90100002 4286141232
-0.065220393 0.13751288 0.89800006 4286207024
-0.06364882 0.13751288 0.89800006 4286273075
-0.062077239 0.13751288 0.89800006 4286273334
-0.060370911 0.1372066 0.89600003 4286339125
-0.058802836 0.1372066 0.89600003 4286404917
-0.05723476 0.1372066 0.89600003 4286470710
-0.055542424 0.13690035 0.89400005 4286470712
-0.053977851 0.13690035 0.89400005 4286536503
-0.052413274 0.13690035 0.89400005 4286470967
-0.0508487 0.13690035 0.89400005 4286405174
-0.049284123 0.13690035 0.89400005 4286339381
-0.047719549 0.13690035 0.89400005 4286274100
-0.046154972 0.13690035 0.89400005 4286143028
-0.044440765 0.13644095 0.89100003 4286077492
-0.04288144 0.13644095 0.89100003 4285945909
-0.041322116 0.13644095 0.89100003 4285814838
-0.039762791 0.13644095 0.89100003 4285683255
-0.038203463 0.13644095 0.89100003 4285552440
-0.03676752 0.13690035 0.89400005 4285421114
-0.11782879 0.14791274 0.95500004 4283582274
-0.11591421 0.14760299 0.95300007 4283713600
-0.11388674 0.14713834 0.95000005 4283844667
-0.1119879 0.14682858 0.94800007 4284173367
-0.10997967 0.14636393 0.94500005 4284501304
-0.10798195 0.14589928 0.94200003 4284895545
-0.10576896 0.14512485 0.93700004 4285289272
-0.10357349 0.14435045 0.93200004 4285552440
-0.10172365 0.14404069 0.93000007 4285814586
-0.10009608 0.14404069 0.93000007 4286011964
-0.098150857 0.14357604 0.92700005 4286208828
-0.096320271 0.14326628 0.92500007 4286405948
-0.094394296 0.14280164 0.92200005 4286602815
-0.092579462 0.14249185 0.92000002 4286603330
-0.090672746 0.14202721 0.91700006 4286668350
-0.089067914 0.14202721 0.91700006 4286668347
-0.087272324 0.14171745 0.91500002 4286733625
-0.085483737 0.1414077 0.91300005 4286668087
-0.083610274 0.14094304 0.91000003 4286667572
-0.082017697 0.14094304 0.91000003 4286601778
-0.080248371 0.14063327 0.90800005 4286601266
-0.078659289 0.14063327 0.90800005 4286601011
-0.076815575 0.14016864 0.90500003 4286600754
-0.075231753 0.14016864 0.90500003 4286534706
-0.073485166 0.13985886 0.90300006 4286468912
-0.071904838 0.13985886 0.90300006 4286337583
-0.070168756 0.13954909 0.90100002 4286272048
-0.06859193 0.13954909 0.90100002 4286206769
-0.066791967 0.13908446 0.89800006 4286141233
-0.065220393 0.13908446 0.89800006 4286207281
-0.063507058 0.13877469 0.89600003 4286272563
-0.061938986 0.13877469 0.89600003 4286272821
-0.060370911 0.13877469 0.89600003 4286338613
-0.058671575 0.13846491 0.89400005 4286404917
-0.057106998 0.13846491 0.89400005 4286536245
-0.055356041 0.13800026 0.89100003 4286602294
-0.053796716 0.13800026 0.89100003 4286667830
-0.052237391 0.13800026 0.89100003 4286602551
-0.050678063 0.13800026 0.89100003 4286536502
-0.049118742 0.13800026 0.89100003 4286404917
-0.047452662 0.13769051 0.88900006 4286339637
-0.045896836 0.13769051 0.88900006 4286274102
-0.044241257 0.13738075 0.88700002 4286208053
-0.042688929 0.13738075 0.88700002 4286076981
-0.041136608 0.13738075 0.88700002 4285945652
-0.039584279 0.13738075 0.88700002 4285814323
-0.038117714 0.13769051 0.88900006 4285748789
-0.036479633 0.13738075 0.88700002 4285617975
-0.035006061 0.13769051 0.88900006 4285486650
-0.033450235 0.13769051 0.88900006 4285355325
-0.11652236 0.15005398 0.95800006 4283516739
-0.11388674 0.14880091 0.95000005 4283384125
-0.11222415 0.14880091 0.95000005 4283713080
-0.10997967 0.14801776 0.94500005 4284041528
-0.10798195 0.14754786 0.94200003 4284435768
-0.10610761 0.14723459 0.94000006 4284829496
-0.10390688 0.14645143 0.93500006 4285092409
-0.10194241 0.14598154 0.93200004 4285420602
-0.10009608 0.14566827 0.93000007 4285683260
-0.098150857 0.14519837 0.92700005 4286011707
-0.096320271 0.14488511 0.92500007 4286143291
-0.094394296 0.14441521 0.92200005 4286340413
-0.092579462 0.14410195 0.92000002 4286405952
-0.090672746 0.14363204 0.91700006 4286537277
-0.088873655 0.14331877 0.91500002 4286602810
-0.087081574 0.14300551 0.91300005 4286668345
-0.085483737 0.14300551 0.91300005 4286733881
-0.083610274 0.14253561 0.91000003 4286864951
-0.082017697 0.14253561 0.91000003 4286733365
-0.080248371 0.14222236 0.90800005 4286667316
-0.078659289 0.14222236 0.90800005 4286667059
-0.076815575 0.14175245 0.90500003 4286667315
-0.075231753 0.14175245 0.90500003 4286535476
-0.073485166 0.14143918 0.90300006 4286469425
-0.071745582 0.14112592 0.90100002 4286337838
-0.070168756 0.14112592 0.90100002 4286272047
-0.068363547 0.14065602 0.89800006 4286140721
-0.066791967 0.14065602 0.89800006 4286009650
-0.065075137 0.14034276 0.89600003 4286075443
-0.063507058 0.14034276 0.89600003 4286206259
-0.061938986 0.14034276 0.89600003 4286206772
-0.060236152 0.1400295 0.89400005 4286272820
-0.058474693 0.1395596 0.89100003 4286404405
-0.056915365 0.1395596 0.89100003 4286536245
-0.055356041 0.1395596 0.89100003 4286602293
-0.053675961 0.13924633 0.88900006 4286668598
-0.052120138 0.13924633 0.88900006 4286668087
-0.050564311 0.13924633 0.88900006 4286667830
-0.049008489 0.13924633 0.88900006 4286536501
-0.047345906 0.13893308 0.88700002 4286405686
-0.045638699 0.13846317 0.88400006 4286339384
-0.044091627 0.13846317 0.88400006 4286273334
-0.042544551 0.13846317 0.88400006 4286142261
-0.040997479 0.13846317 0.88400006 4286076978
-0.039450403 0.13846317 0.88400006 4285945392
-0.037903327 0.13846317 0.88400006 4285879858
-0.036273997 0.1381499 0.88200003 4285748789
-0.034809176 0.13846317 0.88400006 4285683511
-0.0332621 0.13846317 0.88400006 4285552185
-0.11424638 0.15093865 0.95300007 4282926404
-0.11222415 0.15046351 0.95000005 4283254080
-0.10997967 0.14967158 0.94500005 4283648318
-0.10832585 0.14967158 0.94500005 4283976764
-0.10610761 0.14887968 0.94000006 4284369976
-0.10412914 0.14840452 0.93700004 4284698420
-0.10194241 0.1476126 0.93200004 4285092150
-0.10009608 0.14729585 0.93000007 4285486136
-0.098150857 0.14682069 0.92700005 4285879864
-0.096320271 0.14650394 0.92500007 4286011705
-0.094394296 0.14602879 0.92200005 4286143035
-0.092579462 0.14571202 0.92000002 4286274877
-0.090672746 0.14523686 0.91700006 4286405948
-0.088873655 0.14492011 0.91500002 4286537531
-0.087081574 0.14460334 0.91300005 4286668346
-0.08520285 0.14412819 0.91000003 4286865466
-0.08342652 0.14381143 0.90800005 4287127096
-0.081837438 0.14381143 0.90800005 4286930487
-0.079983227 0.14333628 0.90500003 4286798903
-0.078226142 0.14301951 0.90300006 4286733367
-0.076645814 0.14301951 0.90300006 4286733110
-0.074899234 0.14270274 0.90100002 4286602037
-0.0733224 0.14270274 0.90100002 4286535730
-0.071506694 0.1422276 0.89800006 4286404144
-0.069935121 0.1422276 0.89800006 4286337840
-0.068211287 0.14191084 0.89600003 4286074928
-0.066643208 0.14191084 0.89600003 4285878576
-0.06492988 0.14159407 0.89400005 4286009904
-0.063152671 0.14111893 0.89100003 4286140977
-0.061593339 0.14111893 0.89100003 4286206514
-0.060034014 0.14111893 0.89100003 4286272562
-0.058343437 0.14080216 0.88900006 4286404146
-0.05678761 0.14080216 0.88900006 4286535988
-0.055231787 0.14080216 0.88900006 4286602550
-0.053555205 0.14048538 0.88700002 4286734134
-0.052002877 0.14048538 0.88700002 4286734135
-0.050450556 0.14048538 0.88700002 4286799415
-0.048732851 0.14001025 0.88400006 4286668343
-0.047185775 0.14001025 0.88400006 4286536503
-0.045535441 0.13969347 0.88200003 4286405432
-0.043991867 0.13969347 0.88200003 4286339383
-0.042448293 0.13969347 0.88200003 4286273846
-0.040904719 0.13969347 0.88200003 4286273587
-0.039271891 0.13937671 0.88000005 4286142257
-0.037731819 0.13937671 0.88000005 4286076723
-0.036109488 0.13905995 0.87800002 4285945653
-0.034572914 0.13905995 0.87800002 4285880118
-0.03303634 0.13905995 0.87800002 4285749304
-0.031499766 0.13905995 0.87800002 4285683256
-0.11032882 0.15180582 0.94800007 4283583556
-0.10832585 0.15132542 0.94500005 4283583040
-0.10610761 0.15052475 0.94000006 4283582775
-0.10412914 0.15004435 0.93700004 4284107823
-0.10194241 0.1492437 0.93200004 4284632882
-0.10009608 0.14892343 0.93000007 4285026613
-0.098150857 0.14844303 0.92700005 4285420598
-0.096320271 0.14812276 0.92500007 4285617464
-0.094394296 0.14764237 0.92200005 4285880121
-0.092579462 0.14732209 0.92000002 4286077242
-0.090672746 0.14684169 0.91700006 4286274363
-0.088873655 0.14652143 0.91500002 4286405436
-0.087081574 0.14620116 0.91300005 4286536764
-0.08520285 0.14572076 0.91000003 4286668092
-0.083610274 0.14572076 0.91000003 4286864954
-0.081837438 0.14540051 0.90800005 4286799161
-0.079983227 0.14492011 0.90500003 4286733626
-0.078226142 0.14459984 0.90300006 4286733372
-0.07647606 0.14427958 0.90100002 4286733625
-0.074899234 0.14427958 0.90100002 4286798903
-0.073078275 0.14379919 0.89800006 4286930228
-0.071506694 0.14379919 0.89800006 4286667058
-0.069935121 0.14379919 0.89800006 4286469680
-0.068211287 0.1434789 0.89600003 4286272303
-0.066494457 0.14315864 0.89400005 4286075694
-0.064711995 0.14267825 0.89100003 4286075437
-0.063152671 0.14267825 0.89100003 4286075695
-0.061455086 0.14235799 0.88900006 4286206513
-0.059899259 0.14235799 0.88900006 4286338096
-0.058343437 0.14235799 0.88900006 4286469680
-0.05678761 0.14235799 0.88900006 4286602036
-0.054921146 0.14155734 0.88400006 4286668088
-0.053374074 0.14155734 0.88400006 4286800184
-0.051826999 0.14155734 0.88400006 4286799928
-0.050279923 0.14155734 0.88400006 4286865721
-0.048622593 0.14123705 0.88200003 4286733882
-0.047079016 0.14123705 0.88200003 4286602041
-0.045535441 0.14123705 0.88200003 4286536504
-0.043892115 0.14091679 0.88000005 4286470968
-0.042352039 0.14091679 0.88000005 4286404920
-0.040811967 0.14091679 0.88000005 4286339381
-0.039182637 0.14059652 0.87800002 4286208051
-0.037646063 0.14059652 0.87800002 4286143028
-0.035986111 0.14011613 0.87500006 4286076982
-0.034454785 0.14011613 0.87500006 4286011446
-0.032923464 0.14011613 0.87500006 4285945655
-0.031392138 0.14011613 0.87500006 4285880117
-0.10576896 0.15168418 0.93700004 4282862143
-0.10412914 0.15168418 0.93700004 4283517497
-0.10194241 0.15087478 0.93200004 4284239160
-0.10009608 0.15055101 0.93000007 4284632887
-0.098150857 0.15006536 0.92700005 4285026615
-0.096320271 0.14974159 0.92500007 4285355064
-0.094394296 0.14925595 0.92200005 4285683000
-0.092579462 0.14893216 0.92000002 4285945912
-0.090672746 0.14844653 0.91700006 4286208314
-0.088873655 0.14812276 0.91500002 4286274108
-0.087081574 0.147799 0.91300005 4286405436
-0.08520285 0.14731334 0.91000003 4286471484
-0.083610274 0.14731334 0.91000003 4286602557
-0.081567056 0.14650393 0.90500003 4286602814
-0.079806469 0.14618017 0.90300006 4286668092
-0.078052886 0.1458564 0.90100002 4286733626
-0.07647606 0.1458564 0.90100002 4286799161
-0.074649848 0.14537075 0.89800006 4287061304
-0.073078275 0.14537075 0.89800006 4287323190
-0.071347438 0.14504699 0.89600003 4286995509
-0.069779359 0.14504699 0.89600003 4286666802
-0.068059035 0.14472322 0.89400005 4286469680
-0.066271313 0.14423758 0.89100003 4286272299
-0.064711995 0.14423758 0.89100003 4286140454
-0.063010909 0.14391381 0.88900006 4286074922
-0.061455086 0.14391381 0.88900006 4286206767
-0.059764504 0.14359003 0.88700002 4286403376
-0.058212176 0.14359003 0.88700002 4286535218
-0.056659851 0.14359003 0.88700002 4286733110
-0.054796889 0.14278062 0.88200003 4286799418
-0.053253315 0.14278062 0.88200003 4286865466
-0.051709741 0.14278062 0.88200003 4286865722
-0.050166167 0.14278062 0.88200003 4286931002
-0.048512336 0.14245686 0.88000005 4286799675
-0.046972264 0.14245686 0.88000005 4286733370
-0.045432188 0.14245686 0.88000005 4286667578
-0.04379236 0.1421331 0.87800002 4286667320
-0.042255785 0.1421331 0.87800002 4286536247
-0.040719211 0.1421331 0.87800002 4286470453
-0.039182637 0.1421331 0.87800002 4286339124
-0.037517432 0.14164746 0.87500006 4286273587
-0.035903856 0.14132369 0.87300003 4286208051
-0.034376029 0.14132369 0.87300003 4286142515
-0.032848205 0.14132369 0.87300003 4286076980
-0.031320382 0.14132369 0.87300003 4286076979
-0.02979256 0.14132369 0.87300003 4285880627
-0.028199984 0.14099991 0.87100005 4285749301
-0.02667566 0.14099991 0.87100005 4285617976
-0.10357349 0.15250584 0.93200004 4283780419
-0.10194241 0.15250584 0.93200004 4284173886
-0.10009608 0.15217859 0.93000007 4284370490
-0.098468497 0.15217859 0.93000007 4284632633
-0.096320271 0.15136041 0.92500007 4284895288
-0.094394296 0.15086952 0.92200005 4285223479
-0.092579462 0.15054226 0.92000002 4285551926
-0.090672746 0.15005136 0.91700006 4285880121
-0.088873655 0.1497241 0.91500002 4286011452
-0.087081574 0.14939682 0.91300005 4286208572
-0.08520285 0.14890592 0.91000003 4286274365
-0.083610274 0.14890592 0.91000003 4286405952
-0.081567056 0.14808775 0.90500003 4286471491
-0.079806469 0.1477605 0.90300006 4286602813
-0.078052886 0.14743322 0.90100002 4286667832
-0.07647606 0.14743322 0.90100002 4286733624
-0.074649848 0.14694233 0.89800006 4286864697
-0.073078275 0.14694233 0.89800006 4287061305
-0.071347438 0.14661506 0.89600003 4286930233
-0.069779359 0.14661506 0.89600003 4286798645
-0.067830645 0.1457969 0.89100003 4286601265
-0.066271313 0.1457969 0.89100003 4286469160
-0.064566731 0.14546964 0.88900006 4286140191
-0.063010909 0.14546964 0.88900006 4285812006
-0.061316829 0.14514236 0.88700002 4286140717
-0.059562374 0.14465147 0.88400006 4286468912
-0.058015294 0.14465147 0.88400006 4286601268
-0.056468222 0.14465147 0.88400006 4286733880
-0.054796889 0.1443242 0.88200003 4286865468
-0.05313256 0.14399694 0.88000005 4287062844
-0.051592484 0.14399694 0.88000005 4286997052
-0.050052412 0.14399694 0.88000005 4286996796
-0.048512336 0.14399694 0.88000005 4286865212
-0.046972264 0.14399694 0.88000005 4286798908
-0.045328934 0.14366966 0.87800002 4286733116
-0.04379236 0.14366966 0.87800002 4286667321
-0.042255785 0.14366966 0.87800002 4286536247
-0.040580083 0.14317878 0.87500006 4286470710
-0.038959503 0.1428515 0.87300003 4286339381
-0.037431676 0.1428515 0.87300003 4286273843
-0.035821602 0.14252424 0.87100005 4286273585
-0.03429728 0.14252424 0.87100005 4286273585
-0.032772955 0.14252424 0.87100005 4286142513
-0.031248631 0.14252424 0.87100005 4286077490
-0.029724307 0.14252424 0.87100005 4285945908
-0.028199984 0.14252424 0.87100005 4285880630
-0.02667566 0.14252424 0.87100005 4285814840
-0.025035832 0.14186971 0.86700004 4285749303
-0.023464257 0.14154245 0.86500007 4285617975
-0.021950433 0.14154245 0.86500007 4285486905
-0.020436609 0.14154245 0.86500007 4285223995
-0.018922787 0.14154245 0.86500007 4285027386
-0.10172365 0.15380616 0.93000007 4284108613
-0.10009608 0.15380616 0.93000007 4284173889
-0.098468497 0.15380616 0.93000007 4284239163
-0.096320271 0.15297925 0.92500007 4284501558
-0.094394296 0.15248309 0.92200005 4284829750
-0.092579462 0.15215233 0.92000002 4285158711
-0.090672746 0.15165618 0.91700006 4285551928
-0.088873655 0.1513254 0.91500002 4285814842
-0.087081574 0.15099464 0.91300005 4286076986
-0.08520285 0.15049849 0.91000003 4286143290
-0.08342652 0.15016773 0.90800005 4286274620
-0.081567056 0.14967158 0.90500003 4286406463
-0.079806469 0.14934082 0.90300006 4286536763
-0.078052886 0.14901005 0.90100002 4286602296
-0.07647606 0.14901005 0.90100002 4286733369
-0.074649848 0.14851391 0.89800006 4286799162
-0.073078275 0.14851391 0.89800006 4286864954
-0.071347438 0.14818314 0.89600003 4286865466
-0.069623604 0.14785236 0.89400005 4286930486
-0.067830645 0.14735621 0.89100003 4286798899
-0.066271313 0.14735621 0.89100003 4286666285
-0.064566731 0.14702547 0.88900006 4286074151
-0.063010909 0.14702547 0.88900006 4285550636
-0.061316829 0.14669469 0.88700002 4286009650
-0.059562374 0.14619856 0.88400006 4286535221
-0.058015294 0.14619856 0.88400006 4286667577
-0.056468222 0.14619856 0.88400006 4286799675
-0.054672632 0.145537 0.88000005 4286997565
-0.05313256 0.145537 0.88000005 4287259454
-0.051592484 0.145537 0.88000005 4287128383
-0.050052412 0.145537 0.88000005 4287062333
-0.048512336 0.145537 0.88000005 4286996796
-0.046972264 0.145537 0.88000005 4286930234
-0.045328934 0.14520624 0.87800002 4286798905
-0.04364273 0.14471011 0.87500006 4286733111
-0.042111404 0.14471011 0.87500006 4286602038
-0.040580083 0.14471011 0.87500006 4286536244
-0.038959503 0.14437933 0.87300003 4286405170
-0.037431676 0.14437933 0.87300003 4286273841
-0.035821602 0.14404856 0.87100005 4286339121
-0.03429728 0.14404856 0.87100005 4286404656
-0.032772955 0.14404856 0.87100005 4286208303
-0.031176876 0.1437178 0.86900002 4286076977
-0.029656051 0.1437178 0.86900002 4286076979
-0.028135229 0.1437178 0.86900002 4286076725
-0.026491901 0.14305627 0.86500007 4286011704
-0.024978079 0.14305627 0.86500007 4285945911
-0.023464257 0.14305627 0.86500007 4285815094
-0.021874303 0.14256012 0.86200005 4285749047
-0.020365732 0.14256012 0.86200005 4285552185
-0.018922787 0.14305627 0.86500007 4285421112
-0.017408965 0.14305627 0.86500007 4285093175
-0.10172365 0.15543374 0.93000007 4284174923
-0.10009608 0.15543374 0.93000007 4284108616
-0.098468497 0.15543374 0.93000007 4284107838
-0.096320271 0.15459809 0.92500007 4284108084
-0.094394296 0.15409666 0.92200005 4284173878
-0.092579462 0.1537624 0.92000002 4284633145
-0.090672746 0.15326101 0.91700006 4285158200
-0.088873655 0.15292673 0.91500002 4285420600
-0.087081574 0.15259248 0.91300005 4285748791
-0.08520285 0.15209107 0.91000003 4285880375
-0.083610274 0.15209107 0.91000003 4286077497
-0.081567056 0.15125541 0.90500003 4286208828
-0.079806469 0.15092115 0.90300006 4286405178
-0.078052886 0.15058687 0.90100002 4286470712
-0.07647606 0.15058687 0.90100002 4286536505
-0.074649848 0.15008548 0.89800006 4286602299
-0.072915509 0.1497512 0.89600003 4286734139
-0.071347438 0.1497512 0.89600003 4286931004
-0.069389969 0.14891554 0.89100003 4287193656
-0.067830645 0.14891554 0.89100003 4286996277
-0.066122562 0.14858128 0.88900006 4286799666
-0.064566731 0.14858128 0.88900006 4286470192
-0.063010909 0.14858128 0.88900006 4286142259
-0.061316829 0.14824702 0.88700002 4286404663
-0.059562374 0.14774562 0.88400006 4286733115
-0.057884037 0.14741135 0.88200003 4286799423
-0.056340463 0.14741135 0.88200003 4286866238
-0.054672632 0.1470771 0.88000005 4286997310
-0.05313256 0.1470771 0.88000005 4287128640
-0.051592484 0.1470771 0.88000005 4287062850
-0.050052412 0.1470771 0.88000005 4286997055
-0.048402082 0.14674281 0.87800002 4286931005
-0.046865508 0.14674281 0.87800002 4286865210
-0.045174051 0.14624143 0.87500006 4286733623
-0.04364273 0.14624143 0.87500006 4286668086
-0.04201515 0.14590716 0.87300003 4286602293
-0.040487323 0.14590716 0.87300003 4286536498
-0.038870245 0.14557289 0.87100005 4286405168
-0.037345923 0.14557289 0.87100005 4286339888
-0.035739347 0.14523862 0.86900002 4286339633
-0.03421852 0.14523862 0.86900002 4286339887
-0.0326977 0.14523862 0.86900002 4286273582
-0.031176876 0.14523862 0.86900002 4286208048
-0.029587802 0.14490436 0.86700004 4286142258
-0.028070478 0.14490436 0.86700004 4286142005
-0.026400022 0.14406869 0.86200005 4286076728
-0.024978079 0.1445701 0.86500007 4286011447
-0.023382878 0.14406869 0.86200005 4285946166
-0.021874303 0.14406869 0.86200005 4285946423
-0.020365732 0.14406869 0.86200005 4285815096
-0.018857159 0.14406869 0.86200005 4285684279
-0.017348586 0.14406869 0.86200005 4285421622
-0.015895141 0.1445701 0.86500007 4285158970
-0.014381318 0.1445701 0.86500007 4284896319
-0.098150857 0.15655467 0.92700005 4283977287
-0.096320271 0.1562169 0.92500007 4283780417
-0.094394296 0.15571025 0.92200005 4283583808
-0.092579462 0.15537247 0.92000002 4284173887
-0.090672746 0.15486585 0.91700006 4284764220
-0.088873655 0.15452807 0.91500002 4285092410
-0.087081574 0.1541903 0.91300005 4285420600
-0.08520285 0.15368365 0.91000003 4285617718
-0.083610274 0.15368365 0.91000003 4285880119
-0.081567056 0.15283924 0.90500003 4286077241
-0.079806469 0.15250146 0.90300006 4286273592
-0.078052886 0.1521637 0.90100002 4286339639
-0.07647606 0.1521637 0.90100002 4286405176
-0.074649848 0.15165706 0.89800006 4286536761
-0.072915509 0.1513193 0.89600003 4286668091
-0.071347438 0.1513193 0.89600003 4287062334
-0.069389969 0.15047488 0.89100003 4287455546
-0.067678384 0.15013711 0.88900006 4287193399
-0.066122562 0.15013711 0.88900006 4286996279
-0.064421475 0.14979935 0.88700002 4286865207
-0.062869154 0.14979935 0.88700002 4286799159
-0.061109446 0.14929269 0.88400006 4286864952
-0.059427612 0.14895493 0.88200003 4286996028
-0.057884037 0.14895493 0.88200003 4286931265
-0.056212708 0.14861716 0.88000005 4286931519
-0.054672632 0.14861716 0.88000005 4286997566
-0.05313256 0.14861716 0.88000005 4287062847
-0.051475227 0.1482794 0.87800002 4286997312
-0.049938653 0.1482794 0.87800002 4286997054
-0.048402082 0.1482794 0.87800002 4286865724
-0.046705376 0.14777274 0.87500006 4286799673
-0.045070793 0.14743496 0.87300003 4286733879
-0.043542974 0.14743496 0.87300003 4286667829
-0.041918896 0.14709722 0.87100005 4286602547
-0.040394571 0.14709722 0.87100005 4286536498
-0.038870245 0.14709722 0.87100005 4286470961
-0.037345923 0.14709722 0.87100005 4286404913
-0.035739347 0.14675945 0.86900002 4286339633
-0.03421852 0.14675945 0.86900002 4286339377
-0.032622445 0.14642169 0.86700004 4286339121
-0.031105123 0.14642169 0.86700004 4286404657
-0.029587802 0.14642169 0.86700004 4286273586
-0.028005723 0.14608391 0.86500007 4286207796
-0.026400022 0.14557727 0.86200005 4286142519
-0.024891449 0.14557727 0.86200005 4286142775
-0.023382878 0.14557727 0.86200005 4286143543
-0.021874303 0.14557727 0.86200005 4286143289
-0.020365732 0.14557727 0.86200005 4286078268
-0.018857159 0.14557727 0.86200005 4286012217
-0.017348586 0.14557727 0.86200005 4285750071
-0.015840013 0.14557727 0.86200005 4285552442
-0.01433144 0.14557727 0.86200005 4285289790
-0.012822868 0.14557727 0.86200005 4285092928
-0.096528523 0.158177 0.92700005 4283846478
-0.094701439 0.15783574 0.92500007 4283714889
-0.092780724 0.15732382 0.92200005 4284042565
-0.090969376 0.15698256 0.92000002 4284370240
-0.089067914 0.15647067 0.91700006 4284698428
-0.087081574 0.15578812 0.91300005 4285026873
-0.085483737 0.15578812 0.91300005 4285289270
-0.083610274 0.15527624 0.91000003 4285551670
-0.081567056 0.15442306 0.90500003 4285814071
-0.079806469 0.15408179 0.90300006 4286076727
-0.078052886 0.15374053 0.90100002 4286142519
-0.07647606 0.15374053 0.90100002 4286273847
-0.074649848 0.15322864 0.89800006 4286405176
-0.072915509 0.15288736 0.89600003 4286536508
-0.071347438 0.15288736 0.89600003 4286799425
-0.069389969 0.15203419 0.89100003 4287127613
-0.067678384 0.15169294 0.88900006 4287062074
-0.066122562 0.15169294 0.88900006 4286996540
-0.064421475 0.15135168 0.88700002 4286996543
-0.062656522 0.15083976 0.88400006 4286996796
-0.061109446 0.15083976 0.88400006 4286931002
-0.059427612 0.15049849 0.88200003 4286931518
-0.057884037 0.15049849 0.88200003 4286931523
-0.056212708 0.15015723 0.88000005 4286997568
-0.054548375 0.14981596 0.87800002 4286997310
-0.053011801 0.14981596 0.87800002 4286997566
-0.051299348 0.14930408 0.87500006 4286931774
-0.049768023 0.14930408 0.87500006 4286931772
-0.048236698 0.14930408 0.87500006 4286799931
-0.046598621 0.1489628 0.87300003 4286734137
-0.045070793 0.1489628 0.87300003 4286602551
-0.043443218 0.14862154 0.87100005 4286536500
-0.041918896 0.14862154 0.87100005 4286470705
-0.040301815 0.14828026 0.86900002 4286470705
-0.038780991 0.14828026 0.86900002 4286404914
-0.037260171 0.14828026 0.86900002 4286404657
-0.035657093 0.147939 0.86700004 4286404657
-0.034139771 0.147939 0.86700004 4286404915
-0.032547195 0.14759775 0.86500007 4286404917
-0.031033373 0.14759775 0.86500007 4286470452
-0.029519549 0.14759775 0.86500007 4286404659
-0.027908593 0.14708585 0.86200005 4286339125
-0.026338767 0.14674456 0.86000001 4286273591
-0.024833696 0.14674456 0.86000001 4286208568
-0.023328623 0.14674456 0.86000001 4286143289
-0.021823552 0.14674456 0.86000001 4286143548
-0.020318478 0.14674456 0.86000001 4286077760
-0.018813405 0.14674456 0.86000001 4286078012
-0.017308334 0.14674456 0.86000001 4285880888
-0.015803261 0.14674456 0.86000001 4285749562
-0.014298189 0.14674456 0.86000001 4285552445
-0.012793115 0.14674456 0.86000001 4285421627
-0.011288044 0.14674456 0.86000001 4285158714
-0.094701439 0.15945457 0.92500007 4283846733
-0.092780724 0.15893739 0.92200005 4283911755
-0.090969376 0.15859264 0.92000002 4284042566
-0.089067914 0.1580755 0.91700006 4284369985
-0.087081574 0.15738596 0.91300005 4284698174
-0.085483737 0.15738596 0.91300005 4284961083
-0.083610274 0.1568688 0.91000003 4285223480
-0.081567056 0.15600689 0.90500003 4285551670
-0.079806469 0.15566212 0.90300006 4285945142
-0.078052886 0.15531735 0.90100002 4286076982
-0.07647606 0.15531735 0.90100002 4286208055
-0.074649848 0.15480021 0.89800006 4286339896
-0.072915509 0.15445544 0.89600003 4286470971
-0.071347438 0.15445544 0.89600003 4286602558
-0.069389969 0.15359353 0.89100003 4286799420
-0.067678384 0.15324876 0.88900006 4286931002
-0.066122562 0.15324876 0.88900006 4287062077
-0.064421475 0.15290399 0.88700002 4287128385
-0.062656522 0.15238684 0.88400006 4287193406
-0.060971186 0.15204208 0.88200003 4287062588
-0.059427612 0.15204208 0.88200003 4286931262
-0.057752784 0.15169731 0.88000005 4286997312
-0.05608495 0.15135254 0.87800002 4287062591
-0.054548375 0.15135254 0.87800002 4286997310
-0.05283067 0.15083539 0.87500006 4286931774
-0.051299348 0.15083539 0.87500006 4286866239
-0.049768023 0.15083539 0.87500006 4286865724
-0.04812644 0.15049063 0.87300003 4286734394
-0.046598621 0.15049063 0.87300003 4286668088
-0.044967543 0.15014586 0.87100005 4286536759
-0.043443218 0.15014586 0.87100005 4286470195
-0.041822638 0.14980109 0.86900002 4286404655
-0.040301815 0.14980109 0.86900002 4286404656
-0.03869174 0.14945632 0.86700004 4286404657
-0.037174415 0.14945632 0.86700004 4286404401
-0.035574839 0.14911157 0.86500007 4286470449
-0.034061018 0.14911157 0.86500007 4286535987
-0.032547195 0.14911157 0.86500007 4286536758
-0.030925741 0.14859441 0.86200005 4286601781
-0.029417166 0.14859441 0.86200005 4286535988
-0.02784384 0.14824963 0.86000001 4286470453
-0.026338767 0.14824963 0.86000001 4286404918
-0.024833696 0.14824963 0.86000001 4286339382
-0.023328623 0.14824963 0.86000001 4286274102
-0.021823552 0.14824963 0.86000001 4286208569
-0.020318478 0.14824963 0.86000001 4286208572
-0.018813405 0.14824963 0.86000001 4286208826
-0.017308334 0.14824963 0.86000001 4286077752
-0.015803261 0.14824963 0.86000001 4286011961
-0.014264937 0.14790487 0.85800004 4285880634
-0.012763364 0.14790487 0.85800004 4285814842
-0.011261793 0.14790487 0.85800004 4285552186
-0.092780724 0.16055098 0.92200005 4283977810
-0.090969376 0.16020271 0.92000002 4283911756
-0.089067914 0.15968032 0.91700006 4284173639
-0.087272324 0.15933205 0.91500002 4284435780
-0.085483737 0.15898378 0.91300005 4284632897
-0.083610274 0.15846139 0.91000003 4284830011
-0.081567056 0.15759072 0.90500003 4285157686
-0.079806469 0.15724245 0.90300006 4285485621
-0.078052886 0.15689419 0.90100002 4285682741
-0.07647606 0.15689419 0.90100002 4285945654
-0.074649848 0.15637179 0.89800006 4286076984
-0.072915509 0.1560235 0.89600003 4286274106
-0.071188182 0.15567525 0.89400005 4286405436
-0.069389969 0.15515284 0.89100003 4286602555
-0.067678384 0.15480459 0.88900006 4286733883
-0.065973803 0.1544563 0.88700002 4286865471
-0.06420359 0.15393393 0.88400006 4286931011
-0.062656522 0.15393393 0.88400006 4286996800
-0.060971186 0.15358564 0.88200003 4286931262
-0.059292857 0.15323739 0.88000005 4286865725
-0.057752784 0.15323739 0.88000005 4286931261
-0.05608495 0.1528891 0.87800002 4286996797
-0.054361995 0.15236673 0.87500006 4286931262
-0.052709915 0.15201844 0.87300003 4286931519
-0.051182088 0.15201844 0.87300003 4286865728
-0.049654268 0.15201844 0.87300003 4286800188
-0.04812644 0.15201844 0.87300003 4286733881
-0.046491865 0.15167019 0.87100005 4286667576
-0.044967543 0.15167019 0.87100005 4286404663
-0.043343462 0.1513219 0.86900002 4286141490
-0.041726384 0.15097365 0.86700004 4286207278
-0.040209062 0.15097365 0.86700004 4286338607
-0.038602483 0.15062538 0.86500007 4286338352
-0.037088662 0.15062538 0.86500007 4286338609
-0.035451461 0.15010299 0.86200005 4286404146
-0.033942886 0.15010299 0.86200005 4286469940
-0.032434311 0.15010299 0.86200005 4286470455
-0.030925741 0.15010299 0.86200005 4286536758
-0.029348914 0.1497547 0.86000001 4286536502
-0.027779089 0.14940645 0.85800004 4286536757
-0.026277516 0.14940645 0.85800004 4286470709
-0.024775943 0.14940645 0.85800004 4286405428
-0.023274371 0.14940645 0.85800004 4286339635
-0.0217728 0.14940645 0.85800004 4286274101
-0.020271227 0.14940645 0.85800004 4286208568
-0.018725902 0.14905818 0.85600007 4286209080
-0.01722783 0.14905818 0.85600007 4286143289
-0.015729759 0.14905818 0.85600007 4286078008
-0.014264937 0.14940645 0.85800004 4286012216
-0.012733614 0.14905818 0.85600007 4285946681
-0.011235542 0.14905818 0.85600007 4285749307
-0.009714718 0.14870991 0.85400003 4285552442
-0.0082201455 0.14870991 0.85400003 4285289786
-0.093082614 0.16269222 0.92500007 4283978580
-0.091167144 0.16216455 0.92200005 4283781456
-0.089359306 0.16181278 0.92000002 4283977804
-0.087272324 0.16093338 0.91500002 4284174153
-0.085483737 0.16058162 0.91300005 4284304966
-0.083610274 0.16005395 0.91000003 4284501824
-0.081567056 0.15917453 0.90500003 4284764219
-0.079983227 0.15917453 0.90500003 4285091896
-0.078052886 0.158471 0.90100002 4285354805
-0.07647606 0.158471 0.90100002 4285682741
-0.074649848 0.15794337 0.89800006 4285880374
-0.072752759 0.15723982 0.89400005 4286142520
-0.071188182 0.15723982 0.89400005 4286274362
-0.069389969 0.15671217 0.89100003 4286471226
-0.067678384 0.1563604 0.88900006 4286603067
-0.065973803 0.15600863 0.88700002 4286734141
-0.06420359 0.15548098 0.88400006 4286734399
-0.06251476 0.15512922 0.88200003 4286799678
-0.060971186 0.15512922 0.88200003 4286799934
-0.059292857 0.15477745 0.88000005 4286865213
-0.057752784 0.15477745 0.88000005 4286865725
-0.05608495 0.15442568 0.87800002 4286931006
-0.054361995 0.15389805 0.87500006 4286931263
-0.052709915 0.15354627 0.87300003 4286931264
-0.051182088 0.15354627 0.87300003 4286865986
-0.049540512 0.15319452 0.87100005 4286799934
-0.048016191 0.15319452 0.87100005 4286733882
-0.046385109 0.15284273 0.86900002 4286667575
-0.044761032 0.15249097 0.86700004 4286273588
-0.043143954 0.15213922 0.86500007 4285879345
-0.041630134 0.15213922 0.86500007 4286075438
-0.04011631 0.15213922 0.86500007 4286272046
-0.038468603 0.15161155 0.86200005 4286272302
-0.036960032 0.15161155 0.86200005 4286272303
-0.035369202 0.15125978 0.86000001 4286338096
-0.033864129 0.15125978 0.86000001 4286403890
-0.032283805 0.15090802 0.85800004 4286470197
-0.030782232 0.15090802 0.85800004 4286535989
-0.029280661 0.15090802 0.85800004 4286536758
-0.027714336 0.15055625 0.85600007 4286602040
-0.026216265 0.15055625 0.85600007 4286536506
-0.024660438 0.15020448 0.85400003 4286536247
-0.023165865 0.15020448 0.85400003 4286405428
