# .PCD v0.7 - Point Cloud Data file format
VERSION 0.7
FIELDS x y z rgba
SIZE 4 4 4 4
TYPE F F F U
COUNT 1 1 1 1
WIDTH 1054
HEIGHT 1
VIEWPOINT 0 0 0 1 0 0 0
POINTS 1054
DATA ascii
-0.041962646 0.13683473 0.69500005 4287917645
-0.04068771 0.13663782 0.69400001 4287719243
-0.03947315 0.13663782 0.69400001 4287587912
-0.03825859 0.13663782 0.69400001 4287456838
-0.037097413 0.13683473 0.69500005 4287391045
-0.035881106 0.13683473 0.69500005 4287259461
-0.034764547 0.13722849 0.69700003 4287193153
-0.033544742 0.13722849 0.69700003 4287062078
-0.03223218 0.13683473 0.69500005 4286930236
-0.031105123 0.13722849 0.69700003 4286603066
-0.029799562 0.13683473 0.69500005 4286339894
-0.028665507 0.13722849 0.69700003 4286012467
-0.027485073 0.13742536 0.69800001 4285683507
-0.026338769 0.13781914 0.70000005 4285158708
-0.025149586 0.13801602 0.70100003 4284632891
-0.023922777 0.13801602 0.70100003 4284371267
-0.02269597 0.13801602 0.70100003 4284175692
-0.052362524 0.13983874 0.70400006 4286735178
-0.05105783 0.13964011 0.70300001 4287063879
-0.049827524 0.13964011 0.70300001 4287459400
-0.04838983 0.1390442 0.70000005 4287656266
-0.047164775 0.1390442 0.70000005 4287853651
-0.045808457 0.13864692 0.69800001 4288116061
-0.044523019 0.1384483 0.69700003 4288443991
-0.043178957 0.13805103 0.69500005 4288312658
-0.041962646 0.13805103 0.69500005 4288181583
-0.040746339 0.13805103 0.69500005 4287917389
-0.039530031 0.13805103 0.69500005 4287654474
-0.038423978 0.1384483 0.69700003 4287720264
-0.037204169 0.1384483 0.69700003 4287786059
-0.036035985 0.13864692 0.69800001 4287588686
-0.034814425 0.13864692 0.69800001 4287456840
-0.033592865 0.13864692 0.69800001 4287193923
-0.032324933 0.1384483 0.69700003 4286996544
-0.031149749 0.13864692 0.69800001 4286537789
-0.029928191 0.13864692 0.69800001 4286079032
-0.028706631 0.13864692 0.69800001 4285684275
-0.027563829 0.1390442 0.70000005 4285290803
-0.026376396 0.13924284 0.70100003 4284763188
-0.025149586 0.13924284 0.70100003 4284302392
-0.02399103 0.13964011 0.70300001 4283843901
-0.022760721 0.13964011 0.70300001 4283453256
-0.051130462 0.1410708 0.70400006 4286799428
-0.049827524 0.14087041 0.70300001 4287129414
-0.04845896 0.14046964 0.70100003 4287393609
-0.047232147 0.14046964 0.70100003 4287655757
-0.045939714 0.14026926 0.70000005 4288181585
-0.044586897 0.13986848 0.69800001 4288771662
-0.043365341 0.13986848 0.69800001 4288575563
-0.042143781 0.13986848 0.69800001 4288443466
-0.040922221 0.13986848 0.69800001 4288049737
-0.039700665 0.13986848 0.69800001 4287721031
-0.038589358 0.14026926 0.70000005 4287918406
-0.037257541 0.13986848 0.69800001 4288180039
-0.036139242 0.14026926 0.70000005 4287918408
-0.034914181 0.14026926 0.70000005 4287719747
-0.033689126 0.14026926 0.70000005 4287391551
-0.032371309 0.13986848 0.69800001 4287128123
-0.031239005 0.14026926 0.70000005 4286472504
-0.030013947 0.14026926 0.70000005 4285815093
-0.028830014 0.14046964 0.70100003 4285355058
-0.027681958 0.14087041 0.70300001 4284894513
-0.026451647 0.14087041 0.70300001 4284432432
-0.025221338 0.14087041 0.70300001 4283972652
-0.02399103 0.14087041 0.70300001 4283380520
-0.022760721 0.14087041 0.70300001 4282794300
-0.052362524 0.14230286 0.70400006 4286602556
-0.05105783 0.14210072 0.70300001 4286799682
-0.049827524 0.14210072 0.70300001 4286997061
-0.04845896 0.14169645 0.70100003 4286997833
-0.047232147 0.14169645 0.70100003 4286998343
-0.045939714 0.14149432 0.70000005 4287327045
-0.044714656 0.14149432 0.70000005 4287723077
-0.043489598 0.14149432 0.70000005 4287589957
-0.042264536 0.14149432 0.70000005 4287525445
-0.041039478 0.14149432 0.70000005 4287392326
-0.03981442 0.14149432 0.70000005 4287262277
-0.038644485 0.14169645 0.70100003 4287326533
-0.037417676 0.14169645 0.70100003 4287459652
-0.036190867 0.14169645 0.70100003 4287194691
-0.034964059 0.14169645 0.70100003 4286998591
-0.03373725 0.14169645 0.70100003 4286734140
-0.032464065 0.14149432 0.70000005 4286538295
-0.031283632 0.14169645 0.70100003 4286011443
-0.030056823 0.14169645 0.70100003 4285551410
-0.028830014 0.14169645 0.70100003 4285157169
-0.027681958 0.14210072 0.70300001 4284762671
-0.026451647 0.14210072 0.70300001 4284432941
-0.025221338 0.14210072 0.70300001 4284103200
-0.02399103 0.14210072 0.70300001 4283643156
-0.05105783 0.14333102 0.70300001 4286800452
-0.049827524 0.14333102 0.70300001 4286865989
-0.04845896 0.14292327 0.70100003 4286603334
-0.047232147 0.14292327 0.70100003 4286341444
-0.046005338 0.14292327 0.70100003 4286471491
-0.044778533 0.14292327 0.70100003 4286669634
-0.043551724 0.14292327 0.70100003 4286601538
-0.042324916 0.14292327 0.70100003 4286603073
-0.041098107 0.14292327 0.70100003 4286732096
-0.039871298 0.14292327 0.70100003 4286864704
-0.038644485 0.14292327 0.70100003 4286797888
-0.037417676 0.14292327 0.70100003 4286733375
-0.036190867 0.14292327 0.70100003 4286468670
-0.034964059 0.14292327 0.70100003 4286272828
-0.03373725 0.14292327 0.70100003 4286139195
-0.032510445 0.14292327 0.70100003 4286009655
-0.031283632 0.14292327 0.70100003 4285614900
-0.030142574 0.14333102 0.70300001 4285288242
-0.028912267 0.14333102 0.70300001 4284960560
-0.027721336 0.14353491 0.70400006 4284631598
-0.026451647 0.14333102 0.70300001 4284433709
-0.025221338 0.14333102 0.70300001 4284235045
-0.02399103 0.14333102 0.70300001 4283906077
-0.049827524 0.14456134 0.70300001 4287194437
-0.04845896 0.14415006 0.70100003 4287063107
-0.047232147 0.14415006 0.70100003 4286997058
-0.046005338 0.14415006 0.70100003 4287062337
-0.044778533 0.14415006 0.70100003 4287127616
-0.043551724 0.14415006 0.70100003 4286930240
-0.042324916 0.14415006 0.70100003 4286732861
-0.041098107 0.14415006 0.70100003 4286798138
-0.039871298 0.14415006 0.70100003 4286928955
-0.038644485 0.14415006 0.70100003 4286863164
-0.037417676 0.14415006 0.70100003 4286797114
-0.036190867 0.14415006 0.70100003 4286665785
-0.035063811 0.14456134 0.70300001 4286534201
-0.033833504 0.14456134 0.70300001 4286337338
-0.032510445 0.14415006 0.70100003 4286139703
-0.031372886 0.14456134 0.70300001 4285812533
-0.030142574 0.14456134 0.70300001 4285485106
-0.028953394 0.14476699 0.70400006 4285091376
-0.027839465 0.14538388 0.70700002 4284763182
-0.026602156 0.14538388 0.70700002 4284499501
-0.052292518 0.14931719 0.72000003 4287392329
-0.049827524 0.14579165 0.70300001 4287589193
-0.048597217 0.14579165 0.70300001 4287654473
-0.047366906 0.14579165 0.70300001 4287719752
-0.046005338 0.14537688 0.70100003 4287653704
-0.044778533 0.14537688 0.70100003 4287653447
-0.043551724 0.14537688 0.70100003 4287259719
-0.042445667 0.14579165 0.70300001 4286865732
-0.041098107 0.14537688 0.70100003 4286930498
-0.03998505 0.14579165 0.70300001 4287061570
-0.038754743 0.14579165 0.70300001 4286929731
-0.037524432 0.14579165 0.70300001 4286863937
-0.036294121 0.14579165 0.70300001 4286798400
-0.035063811 0.14579165 0.70300001 4286798654
-0.033833504 0.14579165 0.70300001 4286537020
-0.032603193 0.14579165 0.70300001 4286273337
-0.031372886 0.14579165 0.70300001 4286010935
-0.030228332 0.14620642 0.70500004 4285747764
-0.029076774 0.14662118 0.70700002 4285353778
-0.027957596 0.14724334 0.71000004 4284959790
-0.026715038 0.14724334 0.71000004 4284697131
-0.025687737 0.14848764 0.71600002 4284433193
-0.024434678 0.14848764 0.71600002 4284170023
-0.023084488 0.1478655 0.71300006 4283972650
-0.021836678 0.1478655 0.71300006 4283972910
-0.050819822 0.14994985 0.71700001 4287787854
-0.049565013 0.14994985 0.71700001 4287918416
-0.047366906 0.14702195 0.70300001 4288049743
-0.046136599 0.14702195 0.70300001 4288049487
-0.044906285 0.14702195 0.70300001 4288049231
-0.043675978 0.14702195 0.70300001 4287851855
-0.04250605 0.1472311 0.70400006 4287653965
-0.04121536 0.14702195 0.70300001 4287588427
-0.040041927 0.1472311 0.70400006 4287523402
-0.038809873 0.1472311 0.70400006 4287325770
-0.037577812 0.1472311 0.70400006 4287193672
-0.036294121 0.14702195 0.70300001 4287128391
-0.035113692 0.1472311 0.70400006 4287063107
-0.033881631 0.1472311 0.70400006 4286800447
-0.032649577 0.1472311 0.70400006 4286537532
-0.031417515 0.1472311 0.70400006 4286208314
-0.030314086 0.1478585 0.70700002 4285945143
-0.029323537 0.14911331 0.71300006 4285550901
-0.028075729 0.14911331 0.71300006 4285222447
-0.026865544 0.14932245 0.71400005 4284893738
-0.025687737 0.14974071 0.71600002 4284565032
-0.024434678 0.14974071 0.71600002 4284301607
-0.023181615 0.14974071 0.71600002 4284104236
-0.021928556 0.14974071 0.71600002 4284038962
-0.056072701 0.1518373 0.72000003 4287063626
-0.05481264 0.1518373 0.72000003 4287260490
-0.053552579 0.1518373 0.72000003 4287458636
-0.052292518 0.1518373 0.72000003 4287722062
-0.050819822 0.15120465 0.71700001 4288050513
-0.049565013 0.15120465 0.71700001 4288182356
-0.04763642 0.1490958 0.70700002 4288379220
-0.046399109 0.1490958 0.70700002 4288380501
-0.045034047 0.14867404 0.70500004 4288444757
-0.043800235 0.14867404 0.70500004 4288444757
-0.042566426 0.14867404 0.70500004 4288443475
-0.041273989 0.14846316 0.70400006 4288180818
-0.040098809 0.14867404 0.70500004 4287983952
-0.038864996 0.14867404 0.70500004 4287787599
-0.037577812 0.14846316 0.70400006 4287589454
-0.03634575 0.14846316 0.70400006 4287458381
-0.03516357 0.14867404 0.70500004 4287326281
-0.033929758 0.14867404 0.70500004 4287064390
-0.032695949 0.14867404 0.70500004 4286800706
-0.031551391 0.1490958 0.70700002 4286470974
-0.030442717 0.14972846 0.71000004 4286142009
-0.029323537 0.15036112 0.71300006 4285813813
-0.028075729 0.15036112 0.71300006 4285484848
-0.026865544 0.150572 0.71400005 4285091116
-0.025687737 0.15099376 0.71600002 4284762154
-0.024434678 0.15099376 0.71600002 4284498729
-0.023213992 0.15120465 0.71700001 4284301871
-0.021959184 0.15120465 0.71700001 4284235573
-0.02070437 0.15120465 0.71700001 4284172096
-0.019503815 0.15162642 0.71900004 4284174411
-0.018245505 0.15162642 0.71900004 4284240976
-0.055994824 0.15288474 0.71900004 4287195724
-0.054736514 0.15288474 0.71900004 4287458379
-0.0534782 0.15288474 0.71900004 4287722062
-0.05221989 0.15288474 0.71900004 4287918929
-0.050819822 0.15245946 0.71700001 4288116564
-0.049495883 0.15224683 0.71600002 4288248408
-0.048108067 0.15182157 0.71400005 4288446042
-0.046464734 0.15054575 0.708 4288511580
-0.045161799 0.15033312 0.70700002 4288642652
-0.043800235 0.14990786 0.70500004 4288511068
-0.042566426 0.14990786 0.70500004 4288446299
-0.041332617 0.14990786 0.70500004 4288247898
-0.040098809 0.14990786 0.70500004 4288116567
-0.038864996 0.14990786 0.70500004 4287918933
-0.037631188 0.14990786 0.70500004 4287722068
-0.036397379 0.14990786 0.70500004 4287523923
-0.03516357 0.14990786 0.70500004 4287391824
-0.034026016 0.15033312 0.70700002 4287064141
-0.032788705 0.15033312 0.70700002 4286802248
-0.031685278 0.15097103 0.71000004 4286536515
-0.030485593 0.15118366 0.71100003 4286273084
-0.029323537 0.15160894 0.71300006 4285944630
-0.028075729 0.15160894 0.71300006 4285616434
-0.026940797 0.15224683 0.71600002 4285287983
-0.025687737 0.15224683 0.71600002 4284959789
-0.024434678 0.15224683 0.71600002 4284696876
-0.023181615 0.15224683 0.71600002 4284500018
-0.021959184 0.15245946 0.71700001 4284302904
-0.020762125 0.15288474 0.71900004 4284173633
-0.019503815 0.15288474 0.71900004 4284174666
-0.018245505 0.15288474 0.71900004 4284175696
-0.016987193 0.15288474 0.71900004 4284044630
-0.059520368 0.15349989 0.71600002 4285883740
-0.05826731 0.15349989 0.71600002 4286408276
-0.057014242 0.15349989 0.71600002 4286867533
-0.055839062 0.15371428 0.71700001 4287392332
-0.054508127 0.15349989 0.71600002 4287655244
-0.053255063 0.15349989 0.71600002 4287984208
-0.051856749 0.15307112 0.71400005 4288116052
-0.050748944 0.15349989 0.71600002 4288247895
-0.049357627 0.15307112 0.71400005 4288379994
-0.048108067 0.15307112 0.71400005 4288576861
-0.046661623 0.15242797 0.71100003 4288708448
-0.04522568 0.15178481 0.708 4288904799
-0.043986619 0.15178481 0.708 4288708190
-0.042687181 0.15157042 0.70700002 4288511068
-0.041449871 0.15157042 0.70700002 4288379739
-0.04021256 0.15157042 0.70700002 4288312920
-0.03897525 0.15157042 0.70700002 4288050262
-0.037737943 0.15157042 0.70700002 4287852372
-0.036500633 0.15157042 0.70700002 4287654738
-0.035263322 0.15157042 0.70700002 4287457359
-0.034074139 0.15178481 0.708 4287129932
-0.032835081 0.15178481 0.708 4286865990
-0.031685278 0.15221359 0.71000004 4286600769
-0.030485593 0.15242797 0.71100003 4286404155
-0.029323537 0.15285674 0.71300006 4286076213
-0.028115105 0.15307112 0.71400005 4285813298
-0.026827918 0.15285674 0.71300006 4285485104
-0.025687737 0.15349989 0.71600002 4285222447
-0.024434678 0.15349989 0.71600002 4284960047
-0.023116864 0.15307112 0.71400005 4284762676
-0.021959184 0.15371428 0.71700001 4284434490
-0.020762125 0.15414305 0.71900004 4284173635
-0.019530941 0.15435743 0.72000003 4284174925
-0.01827088 0.15435743 0.72000003 4284175441
-0.017010819 0.15435743 0.72000003 4284045142
-0.05826731 0.15475295 0.71600002 4286080853
-0.057014242 0.15475295 0.71600002 4286801997
-0.055761185 0.15475295 0.71600002 4287589197
-0.054508127 0.15475295 0.71600002 4287787086
-0.053106308 0.15432069 0.71400005 4287984979
-0.052002005 0.15475295 0.71600002 4288116568
-0.05060719 0.15432069 0.71400005 4288313690
-0.049357627 0.15432069 0.71400005 4288445277
-0.048108067 0.15432069 0.71400005 4288642401
-0.046792883 0.15410455 0.71300006 4288707941
-0.045417313 0.15367228 0.71100003 4288839266
-0.044110876 0.15345615 0.71000004 4288642144
-0.042747557 0.15302387 0.708 4288445278
-0.0415085 0.15302387 0.708 4288313437
-0.040269438 0.15302387 0.708 4288246874
-0.039030377 0.15302387 0.708 4288049496
-0.037791319 0.15302387 0.708 4287852373
-0.036552258 0.15302387 0.708 4287654738
-0.0353132 0.15302387 0.708 4287457102
-0.034074139 0.15302387 0.708 4287259723
-0.032927837 0.15345615 0.71000004 4287063109
-0.031729903 0.15367228 0.71100003 4286733632
-0.030571349 0.15410455 0.71300006 4286470970
-0.029323537 0.15410455 0.71300006 4286207797
-0.028115105 0.15432069 0.71400005 4285944627
-0.026865544 0.15432069 0.71400005 4285616433
-0.025687737 0.15475295 0.71600002 4285354545
-0.024434678 0.15475295 0.71600002 4285026098
-0.023181615 0.15475295 0.71600002 4284763191
-0.021959184 0.15496908 0.71700001 4284501053
-0.020762125 0.15540136 0.71900004 4284239687
-0.019530941 0.15561751 0.72000003 4284174929
-0.01827088 0.15561751 0.72000003 4284109907
-0.017058073 0.15604977 0.72200006 4284044630
-0.05826731 0.15600602 0.71600002 4285753175
-0.057093874 0.15622389 0.71700001 4286736721
-0.055761185 0.15600602 0.71600002 4287786063
-0.054508127 0.15600602 0.71600002 4287919182
-0.053106308 0.15557024 0.71400005 4288051283
-0.051856749 0.15557024 0.71400005 4288248920
-0.05060719 0.15557024 0.71400005 4288445273
-0.049357627 0.15557024 0.71400005 4288576859
-0.048040692 0.15535237 0.71300006 4288773470
-0.046792883 0.15535237 0.71300006 4288773730
-0.045353435 0.1546987 0.71000004 4288773472
-0.044110876 0.1546987 0.71000004 4288576606
-0.042747557 0.15426293 0.708 4288379741
-0.0415085 0.15426293 0.708 4288247900
-0.040269438 0.15426293 0.708 4288181593
-0.039030377 0.15426293 0.708 4288049239
-0.037791319 0.15426293 0.708 4287917652
-0.036552258 0.15426293 0.708 4287720530
-0.0353132 0.15426293 0.708 4287522895
-0.034170397 0.1546987 0.71000004 4287389772
-0.032927837 0.1546987 0.71000004 4287324742
-0.031729903 0.15491658 0.71100003 4286931264
-0.030485593 0.15491658 0.71100003 4286602810
-0.029323537 0.15535237 0.71300006 4286339893
-0.028075729 0.15535237 0.71300006 4286076210
-0.026827918 0.15535237 0.71300006 4285813296
-0.025615985 0.15557024 0.71400005 4285551155
-0.024366425 0.15557024 0.71400005 4285157686
-0.023116864 0.15557024 0.71400005 4284829500
-0.021959184 0.15622389 0.71700001 4284567362
-0.020762125 0.15665966 0.71900004 4284305737
-0.019530941 0.15687756 0.72000003 4284175441
-0.018321633 0.15731333 0.72200006 4284109907
-0.017058073 0.15731333 0.72200006 4284110166
-0.058348682 0.15747871 0.71700001 4285621595
-0.057014242 0.15725908 0.71600002 4286408534
-0.055761185 0.15725908 0.71600002 4287195730
-0.054355871 0.15681981 0.71400005 4287459407
-0.053106308 0.15681981 0.71400005 4287790163
-0.051784121 0.15660018 0.71300006 4288117848
-0.05060719 0.15681981 0.71400005 4288511321
-0.0492885 0.15660018 0.71300006 4288708186
-0.048040692 0.15660018 0.71300006 4288905309
-0.046661623 0.15616091 0.71100003 4288971360
-0.045353435 0.15594126 0.71000004 4289101662
-0.044110876 0.15594126 0.71000004 4288839261
-0.042747557 0.15550199 0.708 4288576860
-0.0415085 0.15550199 0.708 4288445275
-0.040269438 0.15550199 0.708 4288379225
-0.039030377 0.15550199 0.708 4288247127
-0.037791319 0.15550199 0.708 4288114773
-0.036552258 0.15550199 0.708 4287852115
-0.0353132 0.15550199 0.708 4287655248
-0.034170397 0.15594126 0.71000004 4287457357
-0.032927837 0.15594126 0.71000004 4287260230
-0.031685278 0.15594126 0.71000004 4286931776
-0.030485593 0.15616091 0.71100003 4286669115
-0.029241282 0.15616091 0.71100003 4286340150
-0.028075729 0.15660018 0.71300006 4286076722
-0.026827918 0.15660018 0.71300006 4285748271
-0.025615985 0.15681981 0.71400005 4285420596
-0.024366425 0.15681981 0.71400005 4285026618
-0.023116864 0.15681981 0.71400005 4284698688
-0.021959184 0.15747871 0.71700001 4284437063
-0.02070437 0.15747871 0.71700001 4284241484
-0.019530941 0.1581376 0.72000003 4284175697
-0.018321633 0.15857689 0.72200006 4284175956
-0.017081698 0.15879652 0.72300005 4284241239
-0.057014242 0.15851213 0.71600002 4286080601
-0.05560543 0.15806937 0.71400005 4286604880
-0.054355871 0.15806937 0.71400005 4287063879
-0.053031929 0.15784797 0.71300006 4287590733
-0.051784121 0.15784797 0.71300006 4288052564
-0.050536312 0.15784797 0.71300006 4288576854
-0.049150243 0.15740521 0.71100003 4288774233
-0.047838554 0.15718383 0.71000004 4289037407
-0.046464734 0.15674105 0.708 4289236069
-0.04522568 0.15674105 0.708 4289496417
-0.043986619 0.15674105 0.708 4289167454
-0.042747557 0.15674105 0.708 4288839516
-0.0415085 0.15674105 0.708 4288708442
-0.040269438 0.15674105 0.708 4288642136
-0.039030377 0.15674105 0.708 4288511062
-0.037791319 0.15674105 0.708 4288378709
-0.036552258 0.15674105 0.708 4288115285
-0.0353132 0.15674105 0.708 4287852368
-0.034170397 0.15718383 0.71000004 4287524940
-0.032927837 0.15718383 0.71000004 4287261510
-0.031685278 0.15718383 0.71000004 4286998592
-0.030485593 0.15740521 0.71100003 4286734906
-0.029241282 0.15740521 0.71100003 4286406197
-0.027996972 0.15740521 0.71100003 4286076980
-0.026827918 0.15784797 0.71300006 4285683251
-0.025580108 0.15784797 0.71300006 4285289273
-0.024366425 0.15806937 0.71400005 4284961088
-0.023116864 0.15806937 0.71400005 4284633669
-0.056854993 0.15931892 0.71400005 4285752925
-0.05560543 0.15931892 0.71400005 4286145870
-0.054355871 0.15931892 0.71400005 4286604864
-0.053031929 0.15909579 0.71300006 4287063880
-0.051784121 0.15909579 0.71300006 4287656528
-0.050394554 0.15864952 0.71100003 4288249172
-0.049150243 0.15864952 0.71100003 4288577625
-0.047838554 0.15842637 0.71000004 4288907105
-0.046464734 0.15798011 0.708 4289169770
-0.04522568 0.15798011 0.708 4289432676
-0.043986619 0.15798011 0.708 4289234271
-0.042747557 0.15798011 0.708 4289037148
-0.0415085 0.15798011 0.708 4288905306
-0.040269438 0.15798011 0.708 4288838999
-0.039030377 0.15798011 0.708 4288511573
-0.037791319 0.15798011 0.708 4288250198
-0.036655515 0.15842637 0.71000004 4287984983
-0.035412956 0.15842637 0.71000004 4287787089
-0.034170397 0.15842637 0.71000004 4287459404
-0.032927837 0.15842637 0.71000004 4287131718
-0.031685278 0.15842637 0.71000004 4286801729
-0.030442717 0.15842637 0.71000004 4286538299
-0.029200157 0.15842637 0.71000004 4286143797
-0.027996972 0.15864952 0.71100003 4285749302
-0.026752664 0.15864952 0.71100003 4285355063
-0.025580108 0.15909579 0.71300006 4284961599
-0.024332298 0.15909579 0.71300006 4284699207
-0.023084488 0.15909579 0.71300006 4284437579
-0.056854993 0.16056849 0.71400005 4285425504
-0.05560543 0.16056849 0.71400005 4285752663
-0.054355871 0.16056849 0.71400005 4286145870
-0.053031929 0.1603436 0.71300006 4286604623
-0.051784121 0.1603436 0.71300006 4287260752
-0.050394554 0.15989383 0.71100003 4287984209
-0.049150243 0.15989383 0.71100003 4288380243
-0.047838554 0.15966895 0.71000004 4288840281
-0.046464734 0.15921916 0.708 4289103967
-0.04522568 0.15921916 0.708 4289431645
-0.043986619 0.15921916 0.708 4289300571
-0.042747557 0.15921916 0.708 4289233752
-0.0415085 0.15921916 0.708 4289102678
-0.040269438 0.15921916 0.708 4289036371
-0.039030377 0.15921916 0.708 4288577360
-0.037791319 0.15921916 0.708 4288182864
-0.036655515 0.15966895 0.71000004 4287919184
-0.035412956 0.15966895 0.71000004 4287721545
-0.034170397 0.15966895 0.71000004 4287328579
-0.032835081 0.15921916 0.708 4286999103
-0.031685278 0.15966895 0.71000004 4286669372
-0.030442717 0.15966895 0.71000004 4286341176
-0.029200157 0.15966895 0.71000004 4285881397
-0.027957596 0.15966895 0.71000004 4285486393
-0.026752664 0.15989383 0.71100003 4285092157
-0.025508353 0.15989383 0.71100003 4284699204
-0.024332298 0.1603436 0.71300006 4284502859
-0.056854993 0.16181804 0.71400005 4285359460
-0.05560543 0.16181804 0.71400005 4285556064
-0.054355871 0.16181804 0.71400005 4285817948
-0.053031929 0.16159143 0.71300006 4286145622
-0.051784121 0.16159143 0.71300006 4286538832
-0.050394554 0.16113813 0.71100003 4286933326
-0.049150243 0.16113813 0.71100003 4287394381
-0.047838554 0.1609115 0.71000004 4287856464
-0.046464734 0.16045822 0.708 4288184148
-0.04522568 0.16045822 0.708 4288579413
-0.043986619 0.16045822 0.708 4288446807
-0.042747557 0.16045822 0.708 4288315733
-0.0415085 0.16045822 0.708 4288445779
-0.04021256 0.16023159 0.70700002 4288578383
-0.039030377 0.16045822 0.708 4288116556
-0.037791319 0.16045822 0.708 4287723083
-0.036655515 0.1609115 0.71000004 4287459402
-0.035412956 0.1609115 0.71000004 4287262530
-0.034170397 0.1609115 0.71000004 4286933051
-0.032927837 0.1609115 0.71000004 4286604857
-0.031685278 0.1609115 0.71000004 4286209591
-0.030442717 0.1609115 0.71000004 4285882422
-0.029200157 0.1609115 0.71000004 4285223989
-0.027957596 0.1609115 0.71000004 4284567612
-0.026752664 0.16113813 0.71100003 4284502339
-0.025508353 0.16113813 0.71100003 4284437321
-0.024264043 0.16113813 0.71100003 4284306511
-0.05560543 0.16306761 0.71400005 4285424740
-0.054355871 0.16306761 0.71400005 4285556325
-0.053031929 0.16283923 0.71300006 4285751899
-0.051784121 0.16283923 0.71300006 4285816401
-0.050394554 0.16238244 0.71100003 4285948490
-0.049150243 0.16238244 0.71100003 4286407748
-0.047838554 0.16215406 0.71000004 4286868809
-0.046464734 0.16169728 0.708 4287328079
-0.04522568 0.16169728 0.708 4287788367
-0.043986619 0.16169728 0.708 4287591759
-0.042747557 0.16169728 0.708 4287460430
-0.0415085 0.16169728 0.708 4287787085
-0.040269438 0.16169728 0.708 4288180811
-0.039030377 0.16169728 0.708 4287719497
-0.037791319 0.16169728 0.708 4287326534
-0.036655515 0.16215406 0.71000004 4287064131
-0.035412956 0.16215406 0.71000004 4286800958
-0.034170397 0.16215406 0.71000004 4286471482
-0.032927837 0.16215406 0.71000004 4286208308
-0.031685278 0.16215406 0.71000004 4285813550
-0.030442717 0.16215406 0.71000004 4285485362
-0.029200157 0.16215406 0.71000004 4284565047
-0.027957596 0.16215406 0.71000004 4283714367
-0.026752664 0.16238244 0.71100003 4283912519
-0.025508353 0.16238244 0.71100003 4284175179
-0.024264043 0.16238244 0.71100003 4284175696
-0.05560543 0.16431718 0.71400005 4285358954
-0.054355871 0.16431718 0.71400005 4285490287
-0.053031929 0.16408703 0.71300006 4285621089
-0.051784121 0.16408703 0.71300006 4285751379
-0.050394554 0.16362676 0.71100003 4285947719
-0.049150243 0.16362676 0.71100003 4286341691
-0.047838554 0.16339663 0.71000004 4286735170
-0.046464734 0.16293633 0.708 4286801738
-0.04522568 0.16293633 0.708 4286934089
-0.043986619 0.16293633 0.708 4286999112
-0.042747557 0.16293633 0.708 4287131207
-0.0415085 0.16293633 0.708 4287129671
-0.040269438 0.16293633 0.708 4287130951
-0.039030377 0.16293633 0.708 4286931783
-0.037791319 0.16293633 0.708 4286799937
-0.036655515 0.16339663 0.71000004 4286537276
-0.035412956 0.16339663 0.71000004 4286340410
-0.034170397 0.16339663 0.71000004 4286076473
-0.032835081 0.16293633 0.708 4285813039
-0.031685278 0.16339663 0.71000004 4285550373
-0.030356962 0.16293633 0.708 4285287471
-0.029117903 0.16293633 0.708 4284631353
-0.027878841 0.16293633 0.708 4283975746
-0.026715038 0.16339663 0.71000004 4284043084
-0.025472477 0.16339663 0.71000004 4284109647
-0.055527553 0.16533485 0.71300006 4285359208
-0.054279741 0.16533485 0.71300006 4285425258
-0.052883171 0.16487107 0.71100003 4285490015
-0.05163886 0.16487107 0.71100003 4285751892
-0.050394554 0.16487107 0.71100003 4286014027
-0.049150243 0.16487107 0.71100003 4286276162
-0.047838554 0.16463917 0.71000004 4286603846
-0.046595994 0.16463917 0.71000004 4286341450
-0.04522568 0.16417539 0.708 4286079816
-0.044110876 0.16463917 0.71000004 4286405703
-0.042747557 0.16417539 0.708 4286799942
-0.0415085 0.16417539 0.708 4286470213
-0.040269438 0.16417539 0.708 4286144324
-0.039030377 0.16417539 0.708 4286208579
-0.037898075 0.16463917 0.71000004 4286274112
-0.036655515 0.16463917 0.71000004 4286076222
-0.035412956 0.16463917 0.71000004 4285945403
-0.034170397 0.16463917 0.71000004 4285681464
-0.032974213 0.16487107 0.71100003 4285485361
-0.031685278 0.16463917 0.71000004 4285288491
-0.030442717 0.16463917 0.71000004 4285091377
-0.029200157 0.16463917 0.71000004 4284697655
-0.027957596 0.16463917 0.71000004 4284304448
-0.026752664 0.16487107 0.71100003 4284174665
-0.050394554 0.16611537 0.71100003 4286211408
-0.0492885 0.16658266 0.71300006 4286473290
-0.047838554 0.16588174 0.71000004 4286801482
-0.046464734 0.16541445 0.708 4286735946
-0.04522568 0.16541445 0.708 4286735944
-0.043986619 0.16541445 0.708 4286931783
-0.042868316 0.16588174 0.71000004 4287127877
-0.0415085 0.16541445 0.708 4286799683
-0.040269438 0.16541445 0.708 4286537281
-0.039140638 0.16588174 0.71000004 4286537280
-0.037898075 0.16588174 0.71000004 4286537024
-0.036655515 0.16588174 0.71000004 4286339648
-0.03546283 0.16611537 0.71100003 4286208059
-0.03421852 0.16611537 0.71100003 4286010935
-0.033066969 0.16658266 0.71300006 4285814324
-0.031729903 0.16611537 0.71100003 4285486130
-0.030442717 0.16588174 0.71000004 4285223732
-0.029241282 0.16611537 0.71100003 4284829494
-0.027996972 0.16611537 0.71100003 4284436030
-0.049772397 0.16947816 0.72000003 4286736203
-0.047252279 0.16947816 0.72000003 4287196236
-0.045992214 0.16947816 0.72000003 4287392843
-0.04454577 0.168772 0.71700001 4287393098
-0.043230582 0.16853662 0.71600002 4287457608
-0.041977521 0.16853662 0.71600002 4287195462
-0.040610708 0.16806585 0.71400005 4286932036
-0.039306019 0.16783047 0.71300006 4286866499
-0.03811159 0.16806585 0.71400005 4286865730
-0.036810402 0.16783047 0.71300006 4286668865
-0.035612464 0.16806585 0.71400005 4286537277
-0.034507286 0.168772 0.71700001 4286340410
-0.033252474 0.168772 0.71700001 4286143030
-0.031953041 0.16853662 0.71600002 4285749554
-0.030614227 0.16806585 0.71400005 4285355059
-0.029446917 0.16853662 0.71600002 4284960821
-0.02716656 0.16994895 0.72200006 4284173889
-0.049051363 0.17263532 0.72800004 4287393358
-0.04744916 0.17144963 0.72300005 4287524687
-0.046183851 0.17144963 0.72300005 4287722062
-0.044732153 0.17073822 0.72000003 4287656013
-0.043411717 0.1705011 0.71900004 4287656011
-0.042153407 0.1705011 0.71900004 4287326537
-0.040781338 0.17002681 0.71700001 4287064391
-0.039471403 0.16978969 0.71600002 4287063622
-0.038271718 0.17002681 0.71700001 4287063620
-0.036810402 0.16907828 0.71300006 4286932035
-0.035762094 0.17002681 0.71700001 4286800960
-0.034603544 0.1705011 0.71900004 4286537789
-0.03334523 0.1705011 0.71900004 4286340663
-0.03208692 0.1705011 0.71900004 4285881138
-0.030742854 0.17002681 0.71700001 4285486899
-0.029488046 0.17002681 0.71700001 4285092149
-0.028469499 0.17144963 0.72300005 4284763960
-0.027204186 0.17144963 0.72300005 4284304955
-0.049051363 0.17390938 0.72800004 4287721806
-0.047777303 0.17390938 0.72800004 4287853391
-0.046311606 0.17319271 0.72500002 4288050253
-0.044918541 0.17271495 0.72300005 4287919180
-0.043592852 0.17247607 0.72200006 4287852615
-0.042212032 0.17199829 0.72000003 4287522370
-0.040951975 0.17199829 0.72000003 4287260485
-0.03969191 0.17199829 0.72000003 4287261000
-0.038431853 0.17199829 0.72000003 4287326533
-0.037171792 0.17199829 0.72000003 4287195202
-0.035911728 0.17199829 0.72000003 4287129408
-0.034651671 0.17199829 0.72000003 4286866494
-0.033484362 0.17247607 0.72200006 4286603578
-0.032131549 0.17199829 0.72000003 4286144310
-0.030871488 0.17199829 0.72000003 4285683765
-0.029734809 0.17271495 0.72300005 4285288757
-0.028587628 0.17343159 0.72600001 4284960567
-0.027317066 0.17343159 0.72600001 4284501306
-0.026046503 0.17343159 0.72600001 4284108615
-0.053164061 0.17614599 0.73200005 4286604614
-0.05181212 0.17590535 0.73100001 4287456841
-0.050532807 0.17590535 0.73100001 4287721805
-0.049118742 0.17542407 0.72900003 4287985742
-0.047777303 0.17518345 0.72800004 4288116560
-0.046375483 0.17470217 0.72600001 4288313678
-0.045042794 0.17446151 0.72500002 4288247884
-0.043653231 0.17398027 0.72300005 4288247875
-0.042387918 0.17398027 0.72300005 4287785275
-0.041122608 0.17398027 0.72300005 4287325763
-0.039857294 0.17398027 0.72300005 4287523915
-0.038538609 0.17373963 0.72200006 4287721286
-0.037275046 0.17373963 0.72200006 4287589442
-0.036061361 0.17398027 0.72300005 4287458368
-0.034796052 0.17398027 0.72300005 4287129663
-0.033530742 0.17398027 0.72300005 4286800957
-0.032265428 0.17398027 0.72300005 4286340667
-0.031000119 0.17398027 0.72300005 4285881400
-0.029858189 0.17470217 0.72600001 4285420598
-0.028587628 0.17470217 0.72600001 4284960568
-0.027317066 0.17470217 0.72600001 4284566842
-0.026046503 0.17470217 0.72600001 4284173380
-0.053164061 0.17742704 0.73200005 4286800715
-0.051883001 0.17742704 0.73200005 4287982412
-0.050532807 0.17718466 0.73100001 4288117582
-0.049118742 0.17669989 0.72900003 4288313936
-0.047842931 0.17669989 0.72900003 4288444754
-0.046375483 0.17597273 0.72600001 4288576079
-0.045104921 0.17597273 0.72600001 4288642125
-0.043773983 0.17573035 0.72500002 4288705608
-0.042387918 0.17524557 0.72300005 4288045379
-0.041122608 0.17524557 0.72300005 4287391815
-0.039857294 0.17524557 0.72300005 4287722316
-0.038591985 0.17524557 0.72300005 4288115273
-0.037326671 0.17524557 0.72300005 4287918407
-0.036061361 0.17524557 0.72300005 4287786563
-0.034796052 0.17524557 0.72300005 4287393088
-0.033623494 0.17573035 0.72500002 4286997822
-0.032354683 0.17573035 0.72500002 4286536764
-0.031085873 0.17573035 0.72500002 4286142775
-0.029858189 0.17597273 0.72600001 4285552179
-0.028666381 0.17645749 0.72800004 4285026357
-0.02739232 0.17645749 0.72800004 4284632375
-0.026118258 0.17645749 0.72800004 4284238397
-0.024844198 0.17645749 0.72800004 4283976772
-0.053309318 0.17919639 0.73400003 4286998096
-0.051883001 0.17870811 0.73200005 4288113231
-0.050601937 0.17870811 0.73200005 4288247631
-0.049253494 0.17846397 0.73100001 4288379986
-0.047777303 0.17773157 0.72800004 4288707669
-0.046375483 0.17724328 0.72600001 4289035346
-0.045104921 0.17724328 0.72600001 4288970063
-0.043773983 0.17699915 0.72500002 4288904781
-0.042505171 0.17699915 0.72500002 4288178763
-0.04123636 0.17699915 0.72500002 4287522636
-0.039967552 0.17699915 0.72500002 4287787341
-0.03869874 0.17699915 0.72500002 4288051021
-0.037429929 0.17699915 0.72500002 4287984205
-0.036161117 0.17699915 0.72500002 4287917639
-0.034892306 0.17699915 0.72500002 4287458113
-0.03366987 0.17724328 0.72600001 4287064895
-0.032354683 0.17699915 0.72500002 4286602813
-0.031128749 0.17724328 0.72600001 4286207799
-0.029940443 0.17773157 0.72800004 4285682993
-0.028666381 0.17773157 0.72800004 4285223475
-0.02739232 0.17773157 0.72800004 4284762933
-0.026118258 0.17773157 0.72800004 4284368183
-0.024775943 0.17724328 0.72600001 4284041274
-0.054817017 0.18121861 0.73700005 4286145870
-0.053309318 0.18048094 0.73400003 4287195472
-0.051883001 0.17998917 0.73200005 4288311376
-0.050601937 0.17998917 0.73200005 4288379728
-0.049253494 0.17974328 0.73100001 4288511058
-0.047842931 0.17925151 0.72900003 4288970837
-0.046375483 0.17851384 0.72600001 4289494610
-0.045104921 0.17851384 0.72600001 4289298512
-0.043773983 0.17826796 0.72500002 4289099594
-0.042505171 0.17826796 0.72500002 4288373573
-0.04123636 0.17826796 0.72500002 4287720008
-0.039967552 0.17826796 0.72500002 4287853388
-0.03869874 0.17826796 0.72500002 4288050255
-0.037429929 0.17826796 0.72500002 4288050771
-0.036210991 0.17851384 0.72600001 4288049226
-0.034940433 0.17851384 0.72600001 4287588418
-0.03366987 0.17851384 0.72600001 4287194943
-0.032399312 0.17851384 0.72600001 4286733629
-0.031214504 0.17900562 0.72800004 4286339384
-0.029940443 0.17900562 0.72800004 4285879859
-0.028705757 0.17925151 0.72900003 4285419827
-0.027429948 0.17925151 0.72900003 4284959539
-0.026154134 0.17925151 0.72900003 4284499761
-0.024844198 0.17900562 0.72800004 4284106032
-0.054742638 0.1822608 0.73600006 4286539851
-0.053309318 0.1817655 0.73400003 4287327569
-0.051883001 0.18127024 0.73200005 4288116049
-0.050601937 0.18127024 0.73200005 4288248146
-0.049253494 0.18102258 0.73100001 4288445779
-0.047842931 0.18052731 0.72900003 4288773717
-0.046503242 0.18027969 0.72800004 4289166675
-0.045104921 0.1797844 0.72600001 4289036114
-0.043834362 0.1797844 0.72600001 4288970313
-0.042505171 0.17953677 0.72500002 4288442432
-0.04123636 0.17953677 0.72500002 4287982661
-0.039967552 0.17953677 0.72500002 4287983947
-0.03869874 0.17953677 0.72500002 4288050258
-0.037481554 0.1797844 0.72600001 4288247129
-0.036210991 0.1797844 0.72600001 4288509262
-0.034940433 0.1797844 0.72600001 4287852100
-0.033762626 0.18027969 0.72800004 4287262017
-0.032488566 0.18027969 0.72800004 4286866238
-0.031214504 0.18027969 0.72800004 4286470970
-0.029981568 0.18052731 0.72900003 4286076726
-0.028705757 0.18052731 0.72900003 4285682739
-0.027429948 0.18052731 0.72900003 4285157169
-0.026154134 0.18052731 0.72900003 4284631596
-0.024878323 0.18052731 0.72900003 4284237351
-0.023667265 0.18102258 0.73100001 4283844147
-0.054742638 0.18354884 0.73600006 4286934092
-0.053309318 0.18305007 0.73400003 4287459919
-0.051883001 0.18255129 0.73200005 4287984720
-0.050601937 0.18255129 0.73200005 4288182866
-0.049253494 0.18230191 0.73100001 4288379987
-0.047842931 0.18180314 0.72900003 4288642644
-0.046503242 0.18155375 0.72800004 4288904790
-0.045229178 0.18155375 0.72800004 4288840280
-0.043834362 0.18105496 0.72600001 4288839248
-0.0425638 0.18105496 0.72600001 4288574793
-0.041293241 0.18105496 0.72600001 4288311627
-0.040022675 0.18105496 0.72600001 4288180558
-0.038752113 0.18105496 0.72600001 4288115280
-0.037481554 0.18105496 0.72600001 4288509779
-0.036210991 0.18105496 0.72600001 4288968269
-0.035036687 0.18155375 0.72800004 4288180551
-0.033762626 0.18155375 0.72800004 4287392835
-0.032488566 0.18155375 0.72800004 4286998592
-0.03125738 0.18180314 0.72900003 4286668348
-0.029981568 0.18180314 0.72900003 4286274105
-0.028705757 0.18180314 0.72900003 4285945653
-0.027505198 0.18230191 0.73100001 4285355058
-0.026225887 0.18230191 0.73100001 4284828975
-0.024946576 0.18230191 0.73100001 4284433197
-0.023699641 0.18255129 0.73200005 4284040756
-0.022541087 0.18354884 0.73600006 4283713596
-0.056259081 0.18559031 0.73900002 4286737230
-0.054817017 0.18508804 0.73700005 4287131725
-0.053454578 0.18483692 0.73600006 4287524941
-0.051883001 0.18383236 0.73200005 4287918671
-0.050601937 0.18383236 0.73200005 4288116306
-0.049253494 0.1835812 0.73100001 4288314707
-0.047842931 0.18307894 0.72900003 4288510804
-0.046503242 0.18282782 0.72800004 4288707673
-0.045229178 0.18282782 0.72800004 4288708703
-0.043834362 0.18232553 0.72600001 4288709977
-0.0425638 0.18232553 0.72600001 4288510291
-0.041293241 0.18232553 0.72600001 4288312146
-0.040022675 0.18232553 0.72600001 4288115025
-0.038752113 0.18232553 0.72600001 4287983183
-0.037481554 0.18232553 0.72600001 4288181069
-0.036210991 0.18232553 0.72600001 4288379724
-0.035036687 0.18282782 0.72800004 4287853131
-0.033762626 0.18282782 0.72800004 4287327815
-0.032488566 0.18282782 0.72800004 4287062851
-0.031214504 0.18282782 0.72800004 4286799168
-0.029981568 0.18307894 0.72900003 4286405437
-0.028705757 0.18307894 0.72900003 4286077496
-0.027505198 0.1835812 0.73100001 4285552180
-0.026225887 0.1835812 0.73100001 4285093427
-0.024946576 0.1835812 0.73100001 4284632115
-0.023764394 0.18433462 0.73400003 4284172341
-0.022541087 0.18483692 0.73600006 4283713592
-0.056259081 0.18688361 0.73900002 4286934349
-0.054817017 0.18637785 0.73700005 4287327820
-0.053454578 0.18612497 0.73600006 4287589963
-0.052024756 0.18561919 0.73400003 4287918414
-0.050601937 0.18511343 0.73200005 4288115537
-0.049253494 0.18486053 0.73100001 4288313170
-0.047842931 0.18435477 0.72900003 4288444499
-0.046503242 0.18410186 0.72800004 4288576342
-0.045229178 0.18410186 0.72800004 4288577882
-0.043834362 0.18359609 0.72600001 4288577111
-0.0425638 0.18359609 0.72600001 4288444500
-0.041293241 0.18359609 0.72600001 4288312658
-0.040022675 0.18359609 0.72600001 4288115536
-0.038752113 0.18359609 0.72600001 4287917901
-0.037481554 0.18359609 0.72600001 4287852618
-0.036310751 0.18410186 0.72800004 4287852872
-0.035036687 0.18410186 0.72800004 4287590727
-0.033762626 0.18410186 0.72800004 4287326532
-0.032488566 0.18410186 0.72800004 4287126849
-0.03125738 0.18435477 0.72900003 4286930493
-0.029981568 0.18435477 0.72900003 4286602810
-0.028705757 0.18435477 0.72900003 4286274615
-0.027505198 0.18486053 0.73100001 4285814581
-0.026225887 0.18486053 0.73100001 4285355059
-0.024980703 0.18511343 0.73200005 4284829745
-0.023764394 0.18561919 0.73400003 4284369716
-0.022541087 0.18612497 0.73600006 4283713591
-0.057552397 0.18817694 0.73900002 4286801744
-0.056259081 0.18817694 0.73900002 4287130188
-0.054817017 0.18766767 0.73700005 4287458891
-0.053454578 0.18741304 0.73600006 4287787338
-0.052024756 0.18690376 0.73400003 4288115533
-0.050601937 0.18639448 0.73200005 4288247120
-0.049253494 0.18613984 0.73100001 4288443985
-0.047842931 0.18563056 0.72900003 4288510034
-0.046503242 0.18537593 0.72800004 4288641876
-0.045229178 0.18537593 0.72800004 4288576854
-0.043834362 0.18486665 0.72600001 4288576853
-0.0425638 0.18486665 0.72600001 4288445013
-0.041293241 0.18486665 0.72600001 4288313426
-0.040022675 0.18486665 0.72600001 4288115024
-0.038752113 0.18486665 0.72600001 4287917643
-0.037481554 0.18486665 0.72600001 4287851591
-0.036210991 0.18486665 0.72600001 4287851333
-0.035036687 0.18537593 0.72800004 4287655236
-0.033809002 0.18563056 0.72900003 4287458114
-0.032488566 0.18537593 0.72800004 4287259968
-0.03125738 0.18563056 0.72900003 4287128379
-0.029981568 0.18563056 0.72900003 4286800439
-0.02878451 0.18613984 0.73100001 4286473014
-0.027505198 0.18613984 0.73100001 4286011958
-0.026225887 0.18613984 0.73100001 4285617458
-0.024980703 0.18639448 0.73200005 4285026351
-0.023829149 0.18741304 0.73600006 4284501042
-0.022541087 0.18741304 0.73600006 4283910198
-0.056335207 0.18972664 0.74000001 4287392332
-0.054817017 0.18895748 0.73700005 4287656268
-0.053527206 0.18895748 0.73700005 4287985228
-0.052166514 0.18870109 0.73600006 4288313166
-0.050601937 0.18767555 0.73200005 4288444753
-0.049253494 0.18741915 0.73100001 4288575826
-0.047974184 0.18741915 0.73100001 4288641620
-0.04656712 0.18690638 0.72900003 4288707157
-0.045229178 0.18664999 0.72800004 4288641878
-0.043834362 0.18613721 0.72600001 4288641876
-0.0425638 0.18613721 0.72600001 4288445523
-0.041293241 0.18613721 0.72600001 4288312656
-0.040022675 0.18613721 0.72600001 4288114254
-0.038752113 0.18613721 0.72600001 4287916875
-0.037481554 0.18613721 0.72600001 4287850568
-0.036310751 0.18664999 0.72800004 4287851078
-0.035036687 0.18664999 0.72800004 4287720773
-0.033809002 0.18690638 0.72900003 4287654723
-0.032533191 0.18690638 0.72900003 4287523394
-0.03125738 0.18690638 0.72900003 4287391549
-0.030063821 0.18741915 0.73100001 4286998328
-0.02878451 0.18741915 0.73100001 4286669623
-0.027542828 0.18767555 0.73200005 4286274359
-0.026333518 0.18818831 0.73400003 4285945652
-0.025117211 0.18870109 0.73600006 4285289010
-0.023829149 0.18870109 0.73600006 4284632116
-0.022571713 0.18895748 0.73700005 4284171319
-0.0212819 0.18895748 0.73700005 4283778621
-0.056335207 0.1910217 0.74000001 4287458637
-0.054965772 0.19076356 0.73900002 4287788877
-0.053527206 0.19024728 0.73700005 4288182606
-0.052166514 0.18998916 0.73600006 4288642384
-0.050601937 0.1889566 0.73200005 4288642386
-0.049253494 0.18869846 0.73100001 4288642900
-0.047974184 0.18869846 0.73100001 4288707927
-0.04656712 0.18818219 0.72900003 4288838742
-0.045229178 0.18792406 0.72800004 4288772950
-0.043955117 0.18792406 0.72800004 4288772692
-0.0425638 0.18740776 0.72600001 4288575314
-0.041293241 0.18740776 0.72600001 4288443471
-0.040022675 0.18740776 0.72600001 4288245580
-0.038752113 0.18740776 0.72600001 4288113483
-0.037481554 0.18740776 0.72600001 4288047946
-0.036310751 0.18792406 0.72800004 4287982664
-0.035036687 0.18792406 0.72800004 4287851846
-0.033809002 0.18818219 0.72900003 4287786309
-0.032533191 0.18818219 0.72900003 4287589188
-0.03125738 0.18818219 0.72900003 4287457599
-0.030063821 0.18869846 0.73100001 4287129658
-0.02878451 0.18869846 0.73100001 4286801721
-0.027542828 0.1889566 0.73200005 4286406456
-0.026333518 0.18947288 0.73400003 4286078007
-0.025117211 0.18998916 0.73600006 4285420598
-0.023829149 0.18998916 0.73600006 4284829239
-0.022571713 0.19024728 0.73700005 4284302904
-0.0212819 0.19024728 0.73700005 4283842877
-0.05916423 0.19309643 0.74300003 4286670921
-0.05786391 0.19309643 0.74300003 4287261259
-0.056487471 0.19283654 0.74200004 4287590478
-0.054965772 0.19205686 0.73900002 4287985230
-0.053527206 0.1915371 0.73700005 4288445519
-0.052237391 0.1915371 0.73700005 4288970064
-0.050601937 0.19023767 0.73200005 4288839762
-0.049320877 0.19023767 0.73200005 4288708438
-0.047974184 0.18997777 0.73100001 4288840027
-0.04656712 0.18945801 0.72900003 4288970328
-0.045229178 0.18919812 0.72800004 4288904534
-0.043955117 0.18919812 0.72800004 4288903764
-0.0425638 0.18867834 0.72600001 4288705874
-0.041293241 0.18867834 0.72600001 4288574800
-0.040022675 0.18867834 0.72600001 4288443215
-0.038752113 0.18867834 0.72600001 4288377164
-0.037584811 0.18919812 0.72800004 4288245578
-0.036310751 0.18919812 0.72800004 4288180041
-0.035084814 0.18945801 0.72900003 4288049225
-0.033809002 0.18945801 0.72900003 4287917639
-0.032533191 0.18945801 0.72900003 4287720518
-0.03125738 0.18945801 0.72900003 4287588929
-0.030063821 0.18997777 0.73100001 4287261244
-0.02878451 0.18997777 0.73100001 4286932282
-0.027542828 0.19023767 0.73200005 4286603321
-0.026333518 0.19075744 0.73400003 4286274103
-0.025117211 0.19127722 0.73600006 4285617717
-0.023829149 0.19127722 0.73600006 4285025842
-0.022571713 0.1915371 0.73700005 4284500015
-0.0212819 0.1915371 0.73700005 4283973942
-0.056487471 0.19413511 0.74200004 4287590736
-0.055040151 0.19361183 0.74000001 4287919440
-0.053527206 0.19282693 0.73700005 4288247888
-0.052237391 0.19282693 0.73700005 4288642641
-0.050740194 0.19204199 0.73400003 4288642643
-0.049320877 0.19151872 0.73200005 4288643161
-0.048039816 0.19151872 0.73200005 4288905311
-0.046694871 0.19125707 0.73100001 4289233243
-0.045229178 0.19047217 0.72800004 4289101655
-0.043955117 0.19047217 0.72800004 4288970069
-0.042681057 0.19047217 0.72800004 4288903763
-0.041293241 0.1899489 0.72600001 4288838226
-0.040022675 0.1899489 0.72600001 4288640850
-0.038752113 0.1899489 0.72600001 4288509774
-0.037584811 0.19047217 0.72800004 4288377931
-0.036310751 0.19047217 0.72800004 4288312395
-0.035084814 0.19073381 0.72900003 4288115020
-0.033901755 0.19125707 0.73100001 4287983690
-0.032533191 0.19073381 0.72900003 4287786313
-0.031343132 0.19125707 0.73100001 4287589443
-0.030063821 0.19125707 0.73100001 4287260990
-0.02878451 0.19125707 0.73100001 4286932028
-0.027542828 0.19151872 0.73200005 4286603066
-0.026333518 0.19204199 0.73400003 4286273847
-0.025048956 0.19204199 0.73400003 4285682996
-0.023829149 0.19256529 0.73600006 4285157165
-0.022541087 0.19256529 0.73600006 4284631079
-0.0212819 0.19282693 0.73700005 4284104751
-0.056335207 0.19490689 0.74000001 4287656783
-0.055040151 0.19490689 0.74000001 4287919182
-0.053672459 0.1946435 0.73900002 4288116045
-0.052237391 0.19411674 0.73700005 4288313423
-0.050601937 0.19279979 0.73200005 4288445265
-0.049320877 0.19279979 0.73200005 4288576341
-0.047974184 0.1925364 0.73100001 4289036378
-0.046694871 0.1925364 0.73100001 4289560664
-0.045291308 0.19200963 0.72900003 4289298774
-0.043955117 0.19174623 0.72800004 4289101654
-0.042681057 0.19174623 0.72800004 4289101911
-0.041406997 0.19174623 0.72800004 4289166420
-0.040132932 0.19174623 0.72800004 4288904274
-0.038858872 0.19174623 0.72800004 4288706895
-0.037584811 0.19174623 0.72800004 4288575821
-0.036360625 0.19200963 0.72900003 4288443724
-0.035181068 0.1925364 0.73100001 4288246604
-0.033901755 0.1925364 0.73100001 4288049226
-0.032533191 0.19200963 0.72900003 4287852105
-0.031343132 0.1925364 0.73100001 4287654979
-0.030063821 0.1925364 0.73100001 4287261245
-0.02882389 0.19279979 0.73200005 4286932027
-0.027542828 0.19279979 0.73200005 4286603321
-0.026333518 0.19332656 0.73400003 4286274102
-0.025117211 0.19385333 0.73600006 4285814323
-0.023829149 0.19385333 0.73600006 4285354030
-0.022541087 0.19385333 0.73600006 4284828202
-0.056335207 0.19620195 0.74000001 4287853647
-0.055040151 0.19620195 0.74000001 4288049996
-0.053672459 0.19593681 0.73900002 4288115530
-0.052237391 0.19540654 0.73700005 4288181068
-0.050601937 0.19408086 0.73200005 4288181583
-0.049320877 0.19408086 0.73200005 4288181586
-0.047974184 0.19381569 0.73100001 4288575829
-0.046694871 0.19381569 0.73100001 4289036629
-0.045291308 0.19328544 0.72900003 4288905046
-0.043955117 0.1930203 0.72800004 4288839512
-0.042681057 0.1930203 0.72800004 4288838747
-0.041406997 0.1930203 0.72800004 4288904022
-0.040132932 0.1930203 0.72800004 4288772690
-0.038858872 0.1930203 0.72800004 4288641873
-0.037636437 0.19328544 0.72900003 4288510032
-0.036360625 0.19328544 0.72900003 4288443726
-0.035181068 0.19381569 0.73100001 4288246349
-0.033901755 0.19381569 0.73100001 4288114763
-0.032533191 0.19328544 0.72900003 4287852361
-0.031343132 0.19381569 0.73100001 4287655491
-0.030063821 0.19381569 0.73100001 4287326525
-0.02878451 0.19381569 0.73100001 4286997819
-0.027542828 0.19408086 0.73200005 4286603321
-0.026405273 0.19514142 0.73600006 4286274614
-0.025117211 0.19514142 0.73600006 4285814579
-0.023829149 0.19514142 0.73600006 4285420336
-0.022541087 0.19514142 0.73600006 4284894510
-0.061931115 0.19883147 0.74500006 4286145622
-0.05786391 0.19829768 0.74300003 4287854417
-0.056335207 0.197497 0.74000001 4288050512
-0.055040151 0.197497 0.74000001 4288246858
-0.053672459 0.19723012 0.73900002 4288180804
-0.052237391 0.19669636 0.73700005 4288115529
-0.050740194 0.19589569 0.73400003 4287984206
-0.049455632 0.19589569 0.73400003 4287853389
-0.048039816 0.19536191 0.73200005 4288180557
-0.046758756 0.19536191 0.73200005 4288575568
-0.045291308 0.19456126 0.72900003 4288576595
-0.044015497 0.19456126 0.72900003 4288576083
-0.042739686 0.19456126 0.72900003 4288641108
-0.041406997 0.19429436 0.72800004 4288706642
-0.040132932 0.19429436 0.72800004 4288641361
-0.038858872 0.19429436 0.72800004 4288641360
-0.037636437 0.19456126 0.72900003 4288510032
-0.036360625 0.19456126 0.72900003 4288443471
-0.035181068 0.19509502 0.73100001 4288311630
-0.033901755 0.19509502 0.73100001 4288180300
-0.032533191 0.19456126 0.72900003 4287918411
