# .PCD v0.7 - Point Cloud Data file format
VERSION 0.7
FIELDS x y z rgba
SIZE 4 4 4 4
TYPE F F F U
COUNT 1 1 1 1
WIDTH 1053
HEIGHT 1
VIEWPOINT 0 0 0 1 0 0 0
POINTS 1053
DATA ascii
-0.042808816 0.20421909 0.80200005 4294901502
-0.041405242 0.20421909 0.80200005 4294901502
-0.040001679 0.20421909 0.80200005 4294901502
-0.038598109 0.20421909 0.80200005 4294901502
-0.037194543 0.20421909 0.80200005 4294901502
-0.035701718 0.20370981 0.80000001 4294901502
-0.03430165 0.20370981 0.80000001 4294901502
-0.032901585 0.20370981 0.80000001 4294901502
-0.031501517 0.20370981 0.80000001 4294901502
-0.030026197 0.20320055 0.79800004 4294901502
-0.028629629 0.20320055 0.79800004 4294901502
-0.027233062 0.20320055 0.79800004 4294901502
-0.025836494 0.20320055 0.79800004 4294901502
-0.024409302 0.2029459 0.79700005 4294901502
-0.023014484 0.2029459 0.79700005 4294901502
-0.021619666 0.2029459 0.79700005 4294901502
-0.020250225 0.20320055 0.79800004 4294901502
-0.018853659 0.20320055 0.79800004 4294901502
-0.017435215 0.2029459 0.79700005 4294901502
-0.016040398 0.2029459 0.79700005 4294901502
-0.014645581 0.2029459 0.79700005 4294901502
-0.013267389 0.20320055 0.79800004 4294901502
-0.011855946 0.2029459 0.79700005 4294901502
-0.010461129 0.2029459 0.79700005 4294901502
-0.0090663126 0.2029459 0.79700005 4294901502
-0.0076714945 0.2029459 0.79700005 4294901502
-0.0062766774 0.2029459 0.79700005 4294901502
-0.0048818602 0.2029459 0.79700005 4294901502
-0.0034914182 0.20320055 0.79800004 4294901502
-0.0020922259 0.2029459 0.79700005 4294901502
-0.00070003368 0.20370981 0.80000001 4294901502
0.011870822 0.20320055 0.79800004 4288721589
-0.18367748 0.19152136 0.74700004 4292533219
-0.18237016 0.19152136 0.74700004 4293125872
-0.18057808 0.19100858 0.74500006 4293783283
-0.17927426 0.19100858 0.74500006 4293915126
-0.17749268 0.1904958 0.74300003 4294046966
-0.17619236 0.1904958 0.74300003 4294112503
-0.17465666 0.19023941 0.74200004 4294243575
-0.1733581 0.19023941 0.74200004 4294178295
-0.17159577 0.18972664 0.74000001 4294178038
-0.17030069 0.18972664 0.74000001 4294113013
-0.16877726 0.18947025 0.73900002 4294112243
-0.16680405 0.18870109 0.73600006 4294046450
-0.1650662 0.18818831 0.73400003 4293981174
-0.16378164 0.18818831 0.73400003 4293849594
-0.16205432 0.18767555 0.73200005 4293719033
-0.16077325 0.18767555 0.73200005 4293848568
-0.15949219 0.18767555 0.73200005 4293981176
-0.15821113 0.18767555 0.73200005 4294110969
-0.15693006 0.18767555 0.73200005 4294309881
-0.15564899 0.18767555 0.73200005 4294573817
-0.15415704 0.18741915 0.73100001 4294900474
-0.15245946 0.18690638 0.72900003 4294901500
-0.15097627 0.18664999 0.72800004 4294901501
-0.14970222 0.18664999 0.72800004 4294901502
-0.14802037 0.18613721 0.72600001 4294901500
-0.16188718 0.20895569 0.81500006 4294901494
-0.16046086 0.20895569 0.81500006 4294901240
-0.147624 0.20895569 0.81500006 4294244347
-0.14619768 0.20895569 0.81500006 4294507259
-0.14477135 0.20895569 0.81500006 4294638844
-0.14334504 0.20895569 0.81500006 4294769916
-0.14191872 0.20895569 0.81500006 4294770428
-0.14049239 0.20895569 0.81500006 4294835452
-0.13906609 0.20895569 0.81500006 4294835709
-0.13747087 0.20869929 0.81400001 4294835709
-0.13604629 0.20869929 0.81400001 4294835966
-0.13462174 0.20869929 0.81400001 4294901502
-0.13319716 0.20869929 0.81400001 4294901502
-0.13177259 0.20869929 0.81400001 4294901502
-0.13034803 0.20869929 0.81400001 4294901502
-0.12828994 0.20767376 0.81000006 4294901502
-0.12687236 0.20767376 0.81000006 4294901502
-0.1254548 0.20767376 0.81000006 4294901502
-0.12403724 0.20767376 0.81000006 4294901502
-0.12261966 0.20767376 0.81000006 4294901502
-0.12120209 0.20767376 0.81000006 4294901502
-0.11978453 0.20767376 0.81000006 4294901502
-0.11865921 0.20818654 0.81200004 4294901502
-0.11723815 0.20818654 0.81200004 4294901502
-0.11553182 0.20767376 0.81000006 4294901502
-0.11411425 0.20767376 0.81000006 4294901502
-0.11269668 0.20767376 0.81000006 4294901502
-0.11127912 0.20767376 0.81000006 4294901502
-0.10986155 0.20767376 0.81000006 4294901502
-0.10844398 0.20767376 0.81000006 4294901502
-0.10676214 0.20716098 0.80800003 4294901502
-0.10534807 0.20716098 0.80800003 4294901502
-0.103934 0.20716098 0.80800003 4294901502
-0.10251994 0.20716098 0.80800003 4294901502
-0.10110587 0.20716098 0.80800003 4294901502
-0.099691801 0.20716098 0.80800003 4294901502
-0.098277733 0.20716098 0.80800003 4294901502
-0.096863665 0.20716098 0.80800003 4294901502
-0.095449597 0.20716098 0.80800003 4294901502
-0.094035529 0.20716098 0.80800003 4294901502
-0.092621461 0.20716098 0.80800003 4294901502
-0.091207393 0.20716098 0.80800003 4294901502
-0.089793324 0.20716098 0.80800003 4294901502
-0.088379256 0.20716098 0.80800003 4294901502
-0.086965188 0.20716098 0.80800003 4294901502
-0.08555112 0.20716098 0.80800003 4294901502
-0.083928794 0.20664822 0.80600005 4294901502
-0.082518227 0.20664822 0.80600005 4294901502
-0.081107654 0.20664822 0.80600005 4294901502
-0.079697087 0.20664822 0.80600005 4294901502
-0.078092262 0.20613542 0.80400002 4294901502
-0.07668519 0.20613542 0.80400002 4294901502
-0.075278126 0.20613542 0.80400002 4294901502
-0.073871061 0.20613542 0.80400002 4294901502
-0.072644249 0.20664822 0.80600005 4294901502
-0.071056925 0.20613542 0.80400002 4294901502
-0.069649853 0.20613542 0.80400002 4294901502
-0.068242781 0.20613542 0.80400002 4294901502
-0.066835724 0.20613542 0.80400002 4294901502
-0.065428652 0.20613542 0.80400002 4294901502
-0.06402158 0.20613542 0.80400002 4294901502
-0.062458761 0.20562266 0.80200005 4294901502
-0.061055191 0.20562266 0.80200005 4294901502
-0.059651624 0.20562266 0.80200005 4294901502
-0.058248054 0.20562266 0.80200005 4294901502
-0.056844492 0.20562266 0.80200005 4294901502
-0.055302661 0.20510988 0.80000001 4294901502
-0.054037355 0.20562266 0.80200005 4294901502
-0.052502528 0.20510988 0.80000001 4294901502
-0.051102459 0.20510988 0.80000001 4294901502
-0.049702391 0.20510988 0.80000001 4294901502
-0.048302326 0.20510988 0.80000001 4294901502
-0.046902258 0.20510988 0.80000001 4294901502
-0.04550219 0.20510988 0.80000001 4294901502
-0.044102125 0.20510988 0.80000001 4294901502
-0.042702053 0.20510988 0.80000001 4294901502
-0.041301988 0.20510988 0.80000001 4294901502
-0.039901923 0.20510988 0.80000001 4294901502
-0.038501851 0.20510988 0.80000001 4294901502
-0.037194543 0.20562266 0.80200005 4294901502
-0.035612464 0.2045971 0.79800004 4294901502
-0.034215897 0.2045971 0.79800004 4294901502
-0.032819331 0.2045971 0.79800004 4294901502
-0.03142276 0.2045971 0.79800004 4294901502
-0.030026197 0.2045971 0.79800004 4294901502
-0.028593753 0.20434073 0.79700005 4294901502
-0.027198935 0.20434073 0.79700005 4294901502
-0.025804119 0.20434073 0.79700005 4294901502
-0.024409302 0.20434073 0.79700005 4294901502
-0.023014484 0.20434073 0.79700005 4294901502
-0.021619666 0.20434073 0.79700005 4294901502
-0.020224849 0.20434073 0.79700005 4294901502
-0.018830031 0.20434073 0.79700005 4294901502
-0.017435215 0.20434073 0.79700005 4294901502
-0.016040398 0.20434073 0.79700005 4294901502
-0.014645581 0.20434073 0.79700005 4294901502
-0.013250764 0.20434073 0.79700005 4294901502
-0.011855946 0.20434073 0.79700005 4294901502
-0.010461129 0.20434073 0.79700005 4294901502
-0.0090435604 0.20382793 0.79500002 4294901502
-0.0076522431 0.20382793 0.79500002 4294901502
-0.0062609264 0.20382793 0.79500002 4294901502
-0.0048696096 0.20382793 0.79500002 4294901502
-0.0034870428 0.20434073 0.79700005 4294901502
-0.0020869754 0.20382793 0.79500002 4294901502
-0.18367748 0.19282866 0.74700004 4291026138
-0.18237016 0.19282866 0.74700004 4292338413
-0.18057808 0.1923124 0.74500006 4293652977
-0.17927426 0.1923124 0.74500006 4293718518
-0.17797047 0.1923124 0.74500006 4293851126
-0.17619236 0.19179611 0.74300003 4293981174
-0.17489204 0.19179611 0.74300003 4294112502
-0.17359173 0.19179611 0.74300003 4294112246
-0.17205954 0.19153798 0.74200004 4294112246
-0.17076097 0.19153798 0.74200004 4294112502
-0.16946243 0.19153798 0.74200004 4294112757
-0.16748394 0.19076356 0.73900002 4294046708
-0.16551597 0.18998916 0.73600006 4294046197
-0.16378164 0.18947288 0.73400003 4293980918
-0.16249707 0.18947288 0.73400003 4293915124
-0.16121252 0.18947288 0.73400003 4293980659
-0.15949219 0.1889566 0.73200005 4294112755
-0.15821113 0.1889566 0.73200005 4294178036
-0.15693006 0.1889566 0.73200005 4294243828
-0.15564899 0.1889566 0.73200005 4294309621
-0.15436794 0.1889566 0.73200005 4294373879
-0.15245946 0.18818219 0.72900003 4294375418
-0.15097627 0.18792406 0.72800004 4294377212
-0.14970222 0.18792406 0.72800004 4294376190
-0.14802037 0.18740776 0.72600001 4294377214
-0.14674982 0.18740776 0.72600001 4294441726
-0.14293814 0.18740776 0.72600001 4294901502
-0.14744285 0.21012387 0.81400001 4294572795
-0.14601827 0.21012387 0.81400001 4294703867
-0.14459372 0.21012387 0.81400001 4294638587
-0.14316913 0.21012387 0.81400001 4294638843
-0.14174458 0.21012387 0.81400001 4294573051
-0.13997523 0.2096076 0.81200004 4294573051
-0.13889544 0.21012387 0.81400001 4294573052
-0.13713311 0.2096076 0.81200004 4294639357
-0.13571204 0.2096076 0.81200004 4294704638
-0.13429096 0.2096076 0.81200004 4294770430
-0.1328699 0.2096076 0.81200004 4294770174
-0.13112506 0.20909132 0.81000006 4294835966
-0.1297075 0.20909132 0.81000006 4294835710
-0.12797315 0.20857506 0.80800003 4294835966
-0.12655909 0.20857506 0.80800003 4294835710
-0.12514503 0.20857506 0.80800003 4294835966
-0.12373096 0.20857506 0.80800003 4294835966
-0.1223169 0.20857506 0.80800003 4294835966
-0.12090282 0.20857506 0.80800003 4294835966
-0.11978453 0.20909132 0.81000006 4294901502
-0.11836695 0.20909132 0.81000006 4294901502
-0.11694939 0.20909132 0.81000006 4294901502
-0.11553182 0.20909132 0.81000006 4294901502
-0.11411425 0.20909132 0.81000006 4294901502
-0.11241841 0.20857506 0.80800003 4294901502
-0.11100435 0.20857506 0.80800003 4294901502
-0.10959028 0.20857506 0.80800003 4294901502
-0.10817621 0.20857506 0.80800003 4294901502
-0.10676214 0.20857506 0.80800003 4294901502
-0.10534807 0.20857506 0.80800003 4294901502
-0.103934 0.20857506 0.80800003 4294901502
-0.10251994 0.20857506 0.80800003 4294901502
-0.10110587 0.20857506 0.80800003 4294901502
-0.099691801 0.20857506 0.80800003 4294901502
-0.098034471 0.20805877 0.80600005 4294901502
-0.096623905 0.20805877 0.80600005 4294901502
-0.095213339 0.20805877 0.80600005 4294901502
-0.093802772 0.20805877 0.80600005 4294901502
-0.092392199 0.20805877 0.80600005 4294901502
-0.090981632 0.20805877 0.80600005 4294901502
-0.089571066 0.20805877 0.80600005 4294901502
-0.0881605 0.20805877 0.80600005 4294901502
-0.086749934 0.20805877 0.80600005 4294901502
-0.085339367 0.20805877 0.80600005 4294901502
-0.083928794 0.20805877 0.80600005 4294901502
-0.082313463 0.20754249 0.80400002 4294901502
-0.080906391 0.20754249 0.80400002 4294901502
-0.079499327 0.20754249 0.80400002 4294901502
-0.078092262 0.20754249 0.80400002 4294901502
-0.07668519 0.20754249 0.80400002 4294901502
-0.075090863 0.20702623 0.80200005 4294901502
-0.0736873 0.20702623 0.80200005 4294901502
-0.07228373 0.20702623 0.80200005 4294901502
-0.070880167 0.20702623 0.80200005 4294901502
-0.069476597 0.20702623 0.80200005 4294901502
-0.068073034 0.20702623 0.80200005 4294901502
-0.066669464 0.20702623 0.80200005 4294901502
-0.065265894 0.20702623 0.80200005 4294901502
-0.063862324 0.20702623 0.80200005 4294901502
-0.062303003 0.20650993 0.80000001 4294901502
-0.060902931 0.20650993 0.80000001 4294901502
-0.059502862 0.20650993 0.80000001 4294901502
-0.058102798 0.20650993 0.80000001 4294901502
-0.056702733 0.20650993 0.80000001 4294901502
-0.055302661 0.20650993 0.80000001 4294901502
-0.053902596 0.20650993 0.80000001 4294901502
-0.052502528 0.20650993 0.80000001 4294901502
-0.051102459 0.20650993 0.80000001 4294901502
-0.049702391 0.20650993 0.80000001 4294901502
-0.048181571 0.20599367 0.79800004 4294901502
-0.046785004 0.20599367 0.79800004 4294901502
-0.045388438 0.20599367 0.79800004 4294901502
-0.043991867 0.20599367 0.79800004 4294901502
-0.042595301 0.20599367 0.79800004 4294901502
-0.041198734 0.20599367 0.79800004 4294901502
-0.039802168 0.20599367 0.79800004 4294901502
-0.038405601 0.20599367 0.79800004 4294901502
-0.037101787 0.20650993 0.80000001 4294901502
-0.035612464 0.20599367 0.79800004 4294901502
-0.034215897 0.20599367 0.79800004 4294901502
-0.032819331 0.20599367 0.79800004 4294901502
-0.031383388 0.20573555 0.79700005 4294901502
-0.029988572 0.20573555 0.79700005 4294901502
-0.028593753 0.20573555 0.79700005 4294901502
-0.027198935 0.20573555 0.79700005 4294901502
-0.025739364 0.20521925 0.79500002 4294901502
-0.024348047 0.20521925 0.79500002 4294901502
-0.022956731 0.20521925 0.79500002 4294901502
-0.021565413 0.20521925 0.79500002 4294901502
-0.020174095 0.20521925 0.79500002 4294901502
-0.01878278 0.20521925 0.79500002 4294901502
-0.017391462 0.20521925 0.79500002 4294901502
-0.016000144 0.20521925 0.79500002 4294901502
-0.014608827 0.20521925 0.79500002 4294901502
-0.013217512 0.20521925 0.79500002 4294901502
-0.011826195 0.20521925 0.79500002 4294901502
-0.010434877 0.20521925 0.79500002 4294901502
-0.0090435604 0.20521925 0.79500002 4294901502
-0.0076522431 0.20521925 0.79500002 4294901502
-0.0062451758 0.20470299 0.79300004 4294901502
-0.0048696096 0.20521925 0.79500002 4294901502
-0.0034870428 0.20573555 0.79700005 4294901502
-0.0020869754 0.20521925 0.79500002 4294901502
-0.1826143 0.19439586 0.74800003 4291549159
-0.18106285 0.19413598 0.74700004 4293519342
-0.17975552 0.19413598 0.74700004 4293586421
-0.17844823 0.19413598 0.74700004 4293652981
-0.17666665 0.19361621 0.74500006 4293849589
-0.17536283 0.19361621 0.74500006 4294046453
-0.17405902 0.19361621 0.74500006 4294046710
-0.17275521 0.19361621 0.74500006 4294112502
-0.17099111 0.19309643 0.74300003 4294112758
-0.16969079 0.19309643 0.74300003 4294178037
-0.16816385 0.19283654 0.74200004 4294178037
-0.16619062 0.19205686 0.73900002 4294177781
-0.16445105 0.1915371 0.73700005 4294112758
-0.16293985 0.19127722 0.73600006 4294112245
-0.16121252 0.19075744 0.73400003 4294178036
-0.15992795 0.19075744 0.73400003 4294309620
-0.15864339 0.19075744 0.73400003 4294244597
-0.15693006 0.19023767 0.73200005 4294243829
-0.15564899 0.19023767 0.73200005 4294046966
-0.15436794 0.19023767 0.73200005 4293915639
-0.15287773 0.18997777 0.73100001 4293915128
-0.15118366 0.18945801 0.72900003 4293915640
-0.14990784 0.18945801 0.72900003 4293914360
-0.14842816 0.18919812 0.72800004 4293915640
-0.14674982 0.18867834 0.72600001 4293980152
-0.14547925 0.18867834 0.72600001 4294113017
-0.14420868 0.18867834 0.72600001 4294507002
-0.14293814 0.18867834 0.72600001 4294900475
-0.14166756 0.18867834 0.72600001 4294901501
-0.14281738 0.21102867 0.81200004 4294573052
-0.14139631 0.21102867 0.81200004 4294441212
-0.13963048 0.2105089 0.81000006 4294376188
-0.13821292 0.2105089 0.81000006 4294441212
-0.13679534 0.2105089 0.81000006 4294507260
-0.13537776 0.2105089 0.81000006 4294573053
-0.1339602 0.2105089 0.81000006 4294638588
-0.13254264 0.2105089 0.81000006 4294704380
-0.13080131 0.20998912 0.80800003 4294835452
-0.12938723 0.20998912 0.80800003 4294769916
-0.12797315 0.20998912 0.80800003 4294769916
-0.12655909 0.20998912 0.80800003 4294770173
-0.12514503 0.20998912 0.80800003 4294770173
-0.12373096 0.20998912 0.80800003 4294770430
-0.12201413 0.20946935 0.80600005 4294835966
-0.12090282 0.20998912 0.80800003 4294835966
-0.11948875 0.20998912 0.80800003 4294901502
-0.11807469 0.20998912 0.80800003 4294901502
-0.11666062 0.20998912 0.80800003 4294901502
-0.11524656 0.20998912 0.80800003 4294901502
-0.11383247 0.20998912 0.80800003 4294901502
-0.11241841 0.20998912 0.80800003 4294901502
-0.11072958 0.20946935 0.80600005 4294901502
-0.10959028 0.20998912 0.80800003 4294901502
-0.10817621 0.20998912 0.80800003 4294901502
-0.10676214 0.20998912 0.80800003 4294901502
-0.10508732 0.20946935 0.80600005 4294901502
-0.103934 0.20998912 0.80800003 4294901502
-0.10226618 0.20946935 0.80600005 4294901502
-0.10085561 0.20946935 0.80600005 4294901502
-0.099445045 0.20946935 0.80600005 4294901502
-0.098034471 0.20946935 0.80600005 4294901502
-0.096623905 0.20946935 0.80600005 4294901502
-0.095213339 0.20946935 0.80600005 4294901502
-0.093802772 0.20946935 0.80600005 4294901502
-0.092392199 0.20946935 0.80600005 4294901502
-0.090755872 0.20894957 0.80400002 4294901502
-0.0893488 0.20894957 0.80400002 4294901502
-0.087941729 0.20894957 0.80400002 4294901502
-0.086749934 0.20946935 0.80600005 4294901502
-0.0851276 0.20894957 0.80400002 4294901502
-0.083720528 0.20894957 0.80400002 4294901502
-0.082313463 0.20894957 0.80400002 4294901502
-0.080906391 0.20894957 0.80400002 4294901502
-0.079499327 0.20894957 0.80400002 4294901502
-0.077898003 0.2084298 0.80200005 4294901502
-0.076303676 0.20791002 0.80000001 4294901502
-0.0749036 0.20791002 0.80000001 4294901502
-0.073503539 0.20791002 0.80000001 4294901502
-0.072103471 0.20791002 0.80000001 4294901502
-0.070703402 0.20791002 0.80000001 4294901502
-0.069303341 0.20791002 0.80000001 4294901502
-0.067903265 0.20791002 0.80000001 4294901502
-0.066503197 0.20791002 0.80000001 4294901502
-0.065103136 0.20791002 0.80000001 4294901502
-0.063703068 0.20791002 0.80000001 4294901502
-0.062303003 0.20791002 0.80000001 4294901502
-0.060902931 0.20791002 0.80000001 4294901502
-0.059502862 0.20791002 0.80000001 4294901502
-0.058102798 0.20791002 0.80000001 4294901502
-0.056702733 0.20791002 0.80000001 4294901502
-0.055164408 0.20739023 0.79800004 4294901502
-0.053767841 0.20739023 0.79800004 4294901502
-0.052371271 0.20739023 0.79800004 4294901502
-0.050974704 0.20739023 0.79800004 4294901502
-0.049578138 0.20739023 0.79800004 4294901502
-0.048181571 0.20739023 0.79800004 4294901502
-0.046785004 0.20739023 0.79800004 4294901502
-0.045388438 0.20739023 0.79800004 4294901502
-0.043936741 0.20713036 0.79700005 4294901502
-0.042541925 0.20713036 0.79700005 4294901502
-0.041147109 0.20713036 0.79700005 4294901502
-0.039752293 0.20713036 0.79700005 4294901502
-0.038357474 0.20713036 0.79700005 4294901502
-0.037009034 0.20739023 0.79800004 4294901502
-0.035567839 0.20713036 0.79700005 4294901502
-0.034173019 0.20713036 0.79700005 4294901502
-0.032778207 0.20713036 0.79700005 4294901502
-0.031383388 0.20713036 0.79700005 4294901502
-0.029988572 0.20713036 0.79700005 4294901502
-0.028593753 0.20713036 0.79700005 4294901502
-0.027130682 0.20661058 0.79500002 4294901502
-0.025739364 0.20661058 0.79500002 4294901502
-0.024348047 0.20661058 0.79500002 4294901502
-0.022956731 0.20661058 0.79500002 4294901502
-0.021511162 0.20609081 0.79300004 4294901502
-0.020123346 0.20609081 0.79300004 4294901502
-0.018735528 0.20609081 0.79300004 4294901502
-0.01734771 0.20609081 0.79300004 4294901502
-0.015959892 0.20609081 0.79300004 4294901502
-0.014572077 0.20609081 0.79300004 4294901502
-0.01318426 0.20609081 0.79300004 4294901502
-0.011796444 0.20609081 0.79300004 4294901502
-0.010408626 0.20609081 0.79300004 4294901502
-0.00902081 0.20609081 0.79300004 4294901502
-0.0076329927 0.20609081 0.79300004 4294901502
-0.0062451758 0.20609081 0.79300004 4294901502
-0.004857359 0.20609081 0.79300004 4294901502
-0.18359084 0.19675148 0.75200003 4289906657
-0.18227479 0.19675148 0.75200003 4292537066
-0.18047746 0.19622821 0.75000006 4293061620
-0.17916489 0.19622821 0.75000006 4293587188
-0.17737804 0.19570492 0.74800003 4293718516
-0.17606898 0.19570492 0.74800003 4293915637
-0.17475991 0.19570492 0.74800003 4293981174
-0.17275521 0.19492002 0.74500006 4294047222
-0.17145139 0.19492002 0.74500006 4294046967
-0.17014758 0.19492002 0.74500006 4294112502
-0.16839048 0.19439673 0.74300003 4294112246
-0.16753995 0.19492002 0.74500006 4294112246
-0.16623615 0.19492002 0.74500006 4294112502
-0.16426817 0.19413511 0.74200004 4294113014
-0.16253033 0.19361183 0.74000001 4294112502
-0.16101737 0.1933502 0.73900002 4294178806
-0.15907568 0.19256529 0.73600006 4294178295
-0.15735883 0.19204199 0.73400003 4294243831
-0.15564899 0.19151872 0.73200005 4294112759
-0.15436794 0.19151872 0.73200005 4294047990
-0.15308689 0.19151872 0.73200005 4294046966
-0.15159841 0.19125707 0.73100001 4294046708
-0.15031911 0.19125707 0.73100001 4294046451
-0.14903979 0.19125707 0.73100001 4294046963
-0.14735621 0.19073381 0.72900003 4294111987
-0.14608042 0.19073381 0.72900003 4294177780
-0.1448046 0.19073381 0.72900003 4294309622
-0.1433319 0.19047217 0.72800004 4294506489
-0.14205785 0.19047217 0.72800004 4294441468
-0.14078379 0.19047217 0.72800004 4294442749
-0.13950972 0.19047217 0.72800004 4294441982
-0.13658533 0.1899489 0.72600001 4294441982
-0.13928571 0.21140318 0.80800003 4294639357
-0.13787165 0.21140318 0.80800003 4294638589
-0.13645756 0.21140318 0.80800003 4294704124
-0.1350435 0.21140318 0.80800003 4294704124
-0.1339602 0.21192646 0.81000006 4294769659
-0.13221537 0.21140318 0.80800003 4294704379
-0.13080131 0.21140318 0.80800003 4294704635
-0.12938723 0.21140318 0.80800003 4294638587
-0.12765642 0.21087992 0.80600005 4294638843
-0.12624583 0.21087992 0.80600005 4294638844
-0.12483526 0.21087992 0.80600005 4294639357
-0.12342469 0.21087992 0.80600005 4294639102
-0.12201413 0.21087992 0.80600005 4294704894
-0.12060355 0.21087992 0.80600005 4294770174
-0.11919299 0.21087992 0.80600005 4294835966
-0.11778242 0.21087992 0.80600005 4294835710
-0.11637186 0.21087992 0.80600005 4294835966
-0.11496129 0.21087992 0.80600005 4294835966
-0.11355072 0.21087992 0.80600005 4294835966
-0.11214016 0.21087992 0.80600005 4294835710
-0.11072958 0.21087992 0.80600005 4294901502
-0.10931902 0.21087992 0.80600005 4294901502
-0.10817621 0.21140318 0.80800003 4294901502
-0.10649788 0.21087992 0.80600005 4294901246
-0.10508732 0.21087992 0.80600005 4294901502
-0.10367675 0.21087992 0.80600005 4294901502
-0.10226618 0.21087992 0.80600005 4294901502
-0.10085561 0.21087992 0.80600005 4294901502
-0.099445045 0.21087992 0.80600005 4294901502
-0.098034471 0.21087992 0.80600005 4294901502
-0.096623905 0.21087992 0.80600005 4294901502
-0.094977073 0.21035664 0.80400002 4294901502
-0.093570001 0.21035664 0.80400002 4294901502
-0.091933675 0.20983337 0.80200005 4294901502
-0.090530112 0.20983337 0.80200005 4294901502
-0.089126542 0.20983337 0.80200005 4294901502
-0.087722979 0.20983337 0.80200005 4294901502
-0.086534671 0.21035664 0.80400002 4294901502
-0.0851276 0.21035664 0.80400002 4294901502
-0.083720528 0.21035664 0.80400002 4294901502
-0.082313463 0.21035664 0.80400002 4294901502
-0.080705136 0.20983337 0.80200005 4294901502
-0.079301573 0.20983337 0.80200005 4294901502
-0.077898003 0.20983337 0.80200005 4294901502
-0.076303676 0.20931007 0.80000001 4294901502
-0.0749036 0.20931007 0.80000001 4294901502
-0.073503539 0.20931007 0.80000001 4294901502
-0.072103471 0.20931007 0.80000001 4294901502
-0.070703402 0.20931007 0.80000001 4294901502
-0.069303341 0.20931007 0.80000001 4294901502
-0.067903265 0.20931007 0.80000001 4294901502
-0.066503197 0.20931007 0.80000001 4294901502
-0.065103136 0.20931007 0.80000001 4294901502
-0.063703068 0.20931007 0.80000001 4294901502
-0.062303003 0.20931007 0.80000001 4294901502
-0.060750674 0.2087868 0.79800004 4294901502
-0.059354108 0.2087868 0.79800004 4294901502
-0.057957541 0.2087868 0.79800004 4294901502
-0.056560971 0.2087868 0.79800004 4294901502
-0.055164408 0.2087868 0.79800004 4294901502
-0.053767841 0.2087868 0.79800004 4294901502
-0.052371271 0.2087868 0.79800004 4294901502
-0.050974704 0.2087868 0.79800004 4294901502
-0.049578138 0.2087868 0.79800004 4294901502
-0.048181571 0.2087868 0.79800004 4294901502
-0.046726376 0.20852517 0.79700005 4294901502
-0.04533156 0.20852517 0.79700005 4294901502
-0.043936741 0.20852517 0.79700005 4294901502
-0.042541925 0.20852517 0.79700005 4294901502
-0.041147109 0.20852517 0.79700005 4294901502
-0.039652534 0.20800188 0.79500002 4294901502
-0.038357474 0.20852517 0.79700005 4294901502
-0.036962654 0.20852517 0.79700005 4294901502
-0.035478584 0.20800188 0.79500002 4294901502
-0.034087267 0.20800188 0.79500002 4294901502
-0.032695949 0.20800188 0.79500002 4294901502
-0.031304631 0.20800188 0.79500002 4294901502
-0.029913316 0.20800188 0.79500002 4294901502
-0.028521998 0.20800188 0.79500002 4294901502
-0.027062429 0.20747861 0.79300004 4294901502
-0.025674611 0.20747861 0.79300004 4294901502
-0.024286795 0.20747861 0.79300004 4294901502
-0.022898978 0.20747861 0.79300004 4294901502
-0.021511162 0.20747861 0.79300004 4294901502
-0.020123346 0.20747861 0.79300004 4294901502
-0.018735528 0.20747861 0.79300004 4294901502
-0.017303957 0.20695534 0.79100001 4294901502
-0.015959892 0.20747861 0.79300004 4294901502
-0.014535325 0.20695534 0.79100001 4294901502
-0.013151008 0.20695534 0.79100001 4294901502
-0.011766692 0.20695534 0.79100001 4294901502
-0.010382375 0.20695534 0.79100001 4294901502
-0.0089980578 0.20695534 0.79100001 4294901502
-0.0076137418 0.20695534 0.79100001 4294901502
-0.0062294248 0.20695534 0.79100001 4294901502
-0.0048451084 0.20695534 0.79100001 4294901502
-0.18047746 0.19754077 0.75000006 4292601326
-0.17964265 0.19806753 0.75200003 4293586417
-0.17785232 0.19754077 0.75000006 4293718517
-0.17653976 0.19754077 0.75000006 4293849845
-0.1752272 0.19754077 0.75000006 4293915893
-0.17391463 0.19754077 0.75000006 4294046965
-0.17260207 0.19754077 0.75000006 4294046966
-0.17083274 0.19701399 0.74800003 4294046710
-0.16929702 0.19675061 0.74700004 4294046710
-0.16798972 0.19675061 0.74700004 4294112245
-0.16668241 0.19675061 0.74700004 4294112501
-0.16493233 0.19622384 0.74500006 4294112245
-0.16318923 0.19569705 0.74300003 4294111733
-0.16167104 0.19543366 0.74200004 4294112501
-0.16037248 0.19543366 0.74200004 4294177782
-0.15843076 0.1946435 0.73900002 4294243830
-0.15607426 0.19332656 0.73400003 4294244343
-0.15478972 0.19332656 0.73400003 4294244086
-0.15350515 0.19332656 0.73400003 4294244086
-0.15180582 0.19279979 0.73200005 4294243829
-0.15052477 0.19279979 0.73200005 4294178549
-0.14903979 0.1925364 0.73100001 4294178293
-0.1477605 0.1925364 0.73100001 4294178549
-0.14648117 0.1925364 0.73100001 4294243829
-0.1448046 0.19200963 0.72900003 4294178550
-0.14352879 0.19200963 0.72900003 4294112760
-0.14205785 0.19174623 0.72800004 4294046970
-0.14097717 0.19200963 0.72900003 4294047738
-0.13950972 0.19174623 0.72800004 4294046714
-0.13823566 0.19174623 0.72800004 4294047226
-0.13658533 0.19121945 0.72600001 4294046714
-0.13531476 0.19121945 0.72600001 4294047482
-0.13047755 0.21229048 0.80600005 4294573052
-0.12906697 0.21229048 0.80600005 4294506748
-0.12765642 0.21229048 0.80600005 4294507260
-0.12624583 0.21229048 0.80600005 4294507005
-0.12483526 0.21229048 0.80600005 4294507517
-0.12342469 0.21229048 0.80600005 4294572797
-0.12171137 0.21176371 0.80400002 4294638589
-0.12030429 0.21176371 0.80400002 4294704381
-0.11889723 0.21176371 0.80400002 4294769916
-0.11749016 0.21176371 0.80400002 4294770172
-0.11608309 0.21176371 0.80400002 4294769916
-0.11467602 0.21176371 0.80400002 4294770429
-0.1129872 0.21123692 0.80200005 4294835709
-0.11186189 0.21176371 0.80400002 4294835709
-0.11045482 0.21176371 0.80400002 4294901245
-0.10904775 0.21176371 0.80400002 4294901502
-0.10790845 0.21229048 0.80600005 4294901245
-0.10649788 0.21229048 0.80600005 4294901245
-0.10508732 0.21229048 0.80600005 4294901245
-0.10367675 0.21229048 0.80600005 4294901502
-0.10226618 0.21229048 0.80600005 4294901502
-0.10085561 0.21229048 0.80600005 4294901502
-0.099198282 0.21176371 0.80400002 4294901502
-0.09779121 0.21176371 0.80400002 4294901502
-0.096384138 0.21176371 0.80400002 4294901502
-0.094740815 0.21123692 0.80200005 4294901502
-0.093337245 0.21123692 0.80200005 4294901502
-0.091704413 0.21071014 0.80000001 4294901502
-0.090304352 0.21071014 0.80000001 4294901502
-0.089126542 0.21123692 0.80200005 4294901502
-0.087722979 0.21123692 0.80200005 4294901502
-0.086319409 0.21123692 0.80200005 4294901502
-0.084915847 0.21123692 0.80200005 4294901502
-0.083512269 0.21123692 0.80200005 4294901502
-0.082108706 0.21123692 0.80200005 4294901502
-0.080503874 0.21071014 0.80000001 4294901502
-0.079103805 0.21071014 0.80000001 4294901502
-0.077703744 0.21071014 0.80000001 4294901502
-0.076303676 0.21071014 0.80000001 4294901502
-0.0749036 0.21071014 0.80000001 4294901502
-0.073319778 0.21018338 0.79800004 4294901502
-0.071923211 0.21018338 0.79800004 4294901502
-0.070703402 0.21071014 0.80000001 4294901502
-0.069130085 0.21018338 0.79800004 4294901502
-0.067903265 0.21071014 0.80000001 4294901502
-0.066336945 0.21018338 0.79800004 4294901502
-0.064940378 0.21018338 0.79800004 4294901502
-0.063543811 0.21018338 0.79800004 4294901502
-0.062147245 0.21018338 0.79800004 4294901502
-0.060750674 0.21018338 0.79800004 4294901502
-0.059354108 0.21018338 0.79800004 4294901502
-0.057957541 0.21018338 0.79800004 4294901502
-0.056560971 0.21018338 0.79800004 4294901502
-0.055164408 0.21018338 0.79800004 4294901502
-0.053767841 0.21018338 0.79800004 4294901502
-0.052305646 0.20991999 0.79700005 4294901502
-0.050974704 0.21018338 0.79800004 4294901502
-0.049516011 0.20991999 0.79700005 4294901502
-0.048121195 0.20991999 0.79700005 4294901502
-0.046609119 0.2093932 0.79500002 4294901502
-0.045217801 0.2093932 0.79500002 4294901502
-0.043826487 0.2093932 0.79500002 4294901502
-0.042435169 0.2093932 0.79500002 4294901502
-0.041043852 0.2093932 0.79500002 4294901502
-0.039652534 0.2093932 0.79500002 4294901502
-0.03826122 0.2093932 0.79500002 4294901502
-0.036869902 0.2093932 0.79500002 4294901502
-0.03538933 0.20886643 0.79300004 4294901502
-0.034001514 0.20886643 0.79300004 4294901502
-0.032613698 0.20886643 0.79300004 4294901502
-0.031225879 0.20886643 0.79300004 4294901502
-0.029838063 0.20886643 0.79300004 4294901502
-0.02837849 0.20833966 0.79100001 4294901502
-0.026994174 0.20833966 0.79100001 4294901502
-0.025609858 0.20833966 0.79100001 4294901502
-0.02422554 0.20833966 0.79100001 4294901502
-0.022841224 0.20833966 0.79100001 4294901502
-0.021456908 0.20833966 0.79100001 4294901502
-0.020072592 0.20833966 0.79100001 4294901502
-0.018688275 0.20833966 0.79100001 4294901502
-0.017303957 0.20833966 0.79100001 4294901502
-0.015919643 0.20833966 0.79100001 4294901502
-0.014535325 0.20833966 0.79100001 4294901502
-0.013151008 0.20833966 0.79100001 4294901502
-0.01173694 0.20781289 0.78900003 4294901502
-0.010356124 0.20781289 0.78900003 4294901502
-0.0089753065 0.20781289 0.78900003 4294901502
-0.0075944914 0.20781289 0.78900003 4294901502
-0.0062294248 0.20833966 0.79100001 4294901502
-0.17964265 0.1993836 0.75200003 4293325040
-0.17832659 0.1993836 0.75200003 4293455863
-0.17701052 0.1993836 0.75200003 4293653238
-0.17569447 0.1993836 0.75200003 4293784053
-0.17437841 0.1993836 0.75200003 4293915893
-0.17306234 0.1993836 0.75200003 4293980918
-0.1712895 0.19885333 0.75000006 4294046710
-0.16952367 0.19832306 0.74800003 4294046710
-0.1682146 0.19832306 0.74800003 4294046709
-0.16668241 0.19805792 0.74700004 4294046453
-0.16493233 0.19752765 0.74500006 4294046453
-0.1636285 0.19752765 0.74500006 4293980917
-0.16188891 0.19699737 0.74300003 4293982197
-0.16058861 0.19699737 0.74300003 4294046965
-0.15907392 0.19673224 0.74200004 4294113014
-0.15777536 0.19673224 0.74200004 4294112759
-0.15584412 0.19593681 0.73900002 4294178295
-0.15350515 0.19461112 0.73400003 4294178295
-0.15180582 0.19408086 0.73200005 4294178807
-0.15052477 0.19408086 0.73200005 4294112759
-0.1492437 0.19408086 0.73200005 4294112503
-0.1477605 0.19381569 0.73100001 4294112759
-0.14648117 0.19381569 0.73100001 4294178551
-0.14520186 0.19381569 0.73100001 4294113015
-0.14392255 0.19381569 0.73100001 4294113015
-0.14264324 0.19381569 0.73100001 4294113016
-0.14136392 0.19381569 0.73100001 4294179319
-0.13970135 0.19328544 0.72900003 4294112758
-0.13842554 0.19328544 0.72900003 4294112246
-0.13696159 0.1930203 0.72800004 4294112503
-0.13531476 0.19249001 0.72600001 4294112502
-0.13441348 0.1930203 0.72800004 4294309622
-0.13005313 0.19222488 0.72500002 4294377214
-0.12878433 0.19222488 0.72500002 4294376190
-0.1266361 0.19089919 0.72000003 4294442750
-0.12537603 0.19089919 0.72000003 4294441726
-0.12446075 0.19142948 0.72200006 4294442750
-0.12342469 0.21370105 0.80600005 4294704380
-0.12171137 0.21317075 0.80400002 4294769660
-0.12030429 0.21317075 0.80400002 4294769916
-0.11860146 0.21264049 0.80200005 4294769915
-0.11719789 0.21264049 0.80200005 4294704123
-0.11579432 0.21264049 0.80200005 4294638588
-0.11439077 0.21264049 0.80200005 4294638589
-0.1129872 0.21264049 0.80200005 4294639357
-0.11158363 0.21264049 0.80200005 4294704381
-0.11018006 0.21264049 0.80200005 4294770429
-0.10877649 0.21264049 0.80200005 4294770174
-0.10737292 0.21264049 0.80200005 4294835709
-0.10596935 0.21264049 0.80200005 4294835709
-0.10482655 0.21317075 0.80400002 4294835965
-0.10367675 0.21370105 0.80600005 4294835710
-0.10201241 0.21317075 0.80400002 4294835966
-0.10060534 0.21317075 0.80400002 4294835966
-0.099198282 0.21317075 0.80400002 4294901502
-0.09779121 0.21317075 0.80400002 4294901502
-0.096384138 0.21317075 0.80400002 4294901502
-0.094740815 0.21264049 0.80200005 4294901502
-0.093104482 0.21211022 0.80000001 4294901502
-0.091704413 0.21211022 0.80000001 4294901502
-0.090304352 0.21211022 0.80000001 4294901502
-0.088904276 0.21211022 0.80000001 4294901502
-0.087504208 0.21211022 0.80000001 4294901502
-0.086104147 0.21211022 0.80000001 4294901502
-0.084704079 0.21211022 0.80000001 4294901502
-0.08330401 0.21211022 0.80000001 4294901502
-0.081903942 0.21211022 0.80000001 4294901502
-0.080503874 0.21211022 0.80000001 4294901502
-0.079103805 0.21211022 0.80000001 4294901502
-0.077509485 0.21157993 0.79800004 4294901502
-0.076112919 0.21157993 0.79800004 4294901502
-0.074716344 0.21157993 0.79800004 4294901502
-0.073319778 0.21157993 0.79800004 4294901502
-0.071923211 0.21157993 0.79800004 4294901502
-0.070526652 0.21157993 0.79800004 4294901502
-0.069130085 0.21157993 0.79800004 4294901502
-0.067733511 0.21157993 0.79800004 4294901502
-0.066253819 0.21131481 0.79700005 4294901502
-0.064858995 0.21131481 0.79700005 4294901502
-0.063464187 0.21131481 0.79700005 4294901502
-0.062069368 0.21131481 0.79700005 4294901502
-0.060674548 0.21131481 0.79700005 4294901502
-0.059279729 0.21131481 0.79700005 4294901502
-0.057884913 0.21131481 0.79700005 4294901502
-0.056560971 0.21157993 0.79800004 4294901502
-0.055095281 0.21131481 0.79700005 4294901502
-0.053700462 0.21131481 0.79700005 4294901502
-0.052305646 0.21131481 0.79700005 4294901502
-0.050783068 0.21078452 0.79500002 4294901502
-0.04939175 0.21078452 0.79500002 4294901502
-0.048000436 0.21078452 0.79500002 4294901502
-0.046491865 0.21025425 0.79300004 4294901502
-0.045104049 0.21025425 0.79300004 4294901502
-0.043716233 0.21025425 0.79300004 4294901502
-0.042328414 0.21025425 0.79300004 4294901502
-0.041043852 0.21078452 0.79500002 4294901502
-0.039552782 0.21025425 0.79300004 4294901502
-0.038164962 0.21025425 0.79300004 4294901502
-0.036777146 0.21025425 0.79300004 4294901502
-0.035300072 0.20972396 0.79100001 4294901502
-0.033915754 0.20972396 0.79100001 4294901502
-0.032531444 0.20972396 0.79100001 4294901502
-0.031147124 0.20972396 0.79100001 4294901502
-0.029762808 0.20972396 0.79100001 4294901502
-0.02837849 0.20972396 0.79100001 4294901502
-0.026994174 0.20972396 0.79100001 4294901502
-0.025609858 0.20972396 0.79100001 4294901502
-0.02422554 0.20972396 0.79100001 4294901502
-0.022841224 0.20972396 0.79100001 4294901502
-0.021456908 0.20972396 0.79100001 4294901502
-0.020072592 0.20972396 0.79100001 4294901502
-0.018688275 0.20972396 0.79100001 4294901502
-0.017260207 0.20919371 0.78900003 4294901502
-0.015879391 0.20919371 0.78900003 4294901502
-0.014498573 0.20919371 0.78900003 4294901502
-0.013117758 0.20919371 0.78900003 4294901502
-0.01173694 0.20919371 0.78900003 4294901502
-0.010356124 0.20919371 0.78900003 4294901502
-0.0089753065 0.20919371 0.78900003 4294901502
-0.0075944914 0.20919371 0.78900003 4294901502
-0.0062136743 0.20919371 0.78900003 4294901502
-0.0048451084 0.20972396 0.79100001 4294901502
-0.18227039 0.20363542 0.76300001 4293125096
-0.18046081 0.20310166 0.76100004 4293257715
-0.17771669 0.20150033 0.75500005 4293454834
-0.17639539 0.20150033 0.75500005 4293651698
-0.17461027 0.20096655 0.75300002 4293849331
-0.17329247 0.20096655 0.75300002 4293915125
-0.17174627 0.20069967 0.75200003 4294046453
-0.16997695 0.2001659 0.75000006 4293981173
-0.16866438 0.2001659 0.75000006 4293980916
-0.16690554 0.19963212 0.74800003 4293981172
-0.1653751 0.19936523 0.74700004 4294046452
-0.16406778 0.19936523 0.74700004 4293980917
-0.16232471 0.19883147 0.74500006 4293915381
-0.16102089 0.19883147 0.74500006 4293980661
-0.15971707 0.19883147 0.74500006 4294046709
-0.15798798 0.19829768 0.74300003 4294046966
-0.156055 0.197497 0.74000001 4294112502
-0.15455082 0.19723012 0.73900002 4294112758
-0.15222058 0.19589569 0.73400003 4294112758
-0.15093602 0.19589569 0.73400003 4294112759
-0.14965145 0.19589569 0.73400003 4294112759
-0.14796263 0.19536191 0.73200005 4294112759
-0.14668156 0.19536191 0.73200005 4294178295
-0.14540051 0.19536191 0.73200005 4294178551
-0.14392255 0.19509502 0.73100001 4294178551
-0.14264324 0.19509502 0.73100001 4294244344
-0.14136392 0.19509502 0.73100001 4294309623
-0.14008462 0.19509502 0.73100001 4294244086
-0.13842554 0.19456126 0.72900003 4294243830
-0.13714972 0.19456126 0.72900003 4294244342
-0.13568754 0.19429436 0.72800004 4294243830
-0.13441348 0.19429436 0.72800004 4294178294
-0.13277365 0.19376059 0.72600001 4294113015
-0.13150308 0.19376059 0.72600001 4293981177
-0.13005313 0.19349369 0.72500002 4293850361
-0.12842907 0.19295992 0.72300005 4293914873
-0.1266361 0.19215925 0.72000003 4293981689
-0.12537603 0.19215925 0.72000003 4293980153
-0.12446075 0.19269304 0.72200006 4293981945
-0.12285592 0.19215925 0.72000003 4294375418
-0.12142698 0.19189237 0.71900004 4294769403
-0.1214086 0.21404406 0.80200005 4294901245
-0.12000503 0.21404406 0.80200005 4294835965
-0.11860146 0.21404406 0.80200005 4294769916
-0.11719789 0.21404406 0.80200005 4294638076
-0.11579432 0.21404406 0.80200005 4294507260
-0.11439077 0.21404406 0.80200005 4294441469
-0.1129872 0.21404406 0.80200005 4294441724
-0.11158363 0.21404406 0.80200005 4294507004
-0.11018006 0.21404406 0.80200005 4294638588
-0.10850522 0.21351027 0.80000001 4294704380
-0.10710516 0.21351027 0.80000001 4294769916
-0.10596935 0.21404406 0.80200005 4294770172
-0.10482655 0.21457782 0.80400002 4294835708
-0.10341948 0.21457782 0.80400002 4294835709
-0.10201241 0.21457782 0.80400002 4294835709
-0.10060534 0.21457782 0.80400002 4294835966
-0.099198282 0.21457782 0.80400002 4294901502
-0.097547948 0.21404406 0.80200005 4294901502
-0.095904611 0.21351027 0.80000001 4294901502
-0.094268292 0.21297652 0.79800004 4294901502
-0.092871718 0.21297652 0.79800004 4294901502
-0.091475151 0.21297652 0.79800004 4294901502
-0.090078585 0.21297652 0.79800004 4294901502
-0.088904276 0.21351027 0.80000001 4294901502
-0.087504208 0.21351027 0.80000001 4294901502
-0.086104147 0.21351027 0.80000001 4294901502
-0.084492318 0.21297652 0.79800004 4294901502
-0.083095752 0.21297652 0.79800004 4294901502
-0.081699185 0.21297652 0.79800004 4294901245
-0.080302618 0.21297652 0.79800004 4294901501
-0.078906052 0.21297652 0.79800004 4294901245
-0.077412352 0.21270964 0.79700005 4294901501
-0.076017544 0.21270964 0.79700005 4294901501
-0.07462272 0.21270964 0.79700005 4294901502
-0.073227905 0.21270964 0.79700005 4294901502
-0.071833082 0.21270964 0.79700005 4294901502
-0.070438266 0.21270964 0.79700005 4294901502
-0.069043458 0.21270964 0.79700005 4294901502
-0.067648634 0.21270964 0.79700005 4294901502
-0.066087559 0.21217585 0.79500002 4294901502
-0.064696245 0.21217585 0.79500002 4294901502
-0.063304923 0.21217585 0.79500002 4294901502
-0.06191361 0.21217585 0.79500002 4294901502
-0.060674548 0.21270964 0.79700005 4294901502
-0.059279729 0.21270964 0.79700005 4294901502
-0.057884913 0.21270964 0.79700005 4294901502
-0.056490101 0.21270964 0.79700005 4294901502
-0.055095281 0.21270964 0.79700005 4294901502
-0.053565703 0.21217585 0.79500002 4294901502
-0.052174386 0.21217585 0.79500002 4294901502
-0.050655317 0.21164207 0.79300004 4294901502
-0.049267497 0.21164207 0.79300004 4294901502
-0.047879681 0.21164207 0.79300004 4294901502
-0.046491865 0.21164207 0.79300004 4294901502
-0.045104049 0.21164207 0.79300004 4294901502
-0.043716233 0.21164207 0.79300004 4294901502
-0.042328414 0.21164207 0.79300004 4294901502
-0.040940598 0.21164207 0.79300004 4294901502
-0.039552782 0.21164207 0.79300004 4294901502
-0.038164962 0.21164207 0.79300004 4294901502
-0.036777146 0.21164207 0.79300004 4294901502
-0.035210822 0.21057451 0.78900003 4294901502
-0.033830006 0.21057451 0.78900003 4294901502
-0.032449186 0.21057451 0.78900003 4294901502
-0.031068372 0.21057451 0.78900003 4294901502
-0.029687556 0.21057451 0.78900003 4294901502
-0.028306739 0.21057451 0.78900003 4294901502
-0.026925923 0.21057451 0.78900003 4294901502
-0.025545105 0.21057451 0.78900003 4294901502
-0.024164289 0.21057451 0.78900003 4294901502
-0.022783471 0.21057451 0.78900003 4294901502
-0.021402657 0.21057451 0.78900003 4294901502
-0.020021839 0.21057451 0.78900003 4294901502
-0.018641023 0.21057451 0.78900003 4294901502
-0.017260207 0.21057451 0.78900003 4294901502
-0.015879391 0.21057451 0.78900003 4294901502
-0.014498573 0.21057451 0.78900003 4294901502
-0.013117758 0.21057451 0.78900003 4294901502
-0.011722065 0.21030763 0.78800005 4294901502
-0.010342998 0.21030763 0.78800005 4294901502
-0.0089639314 0.21030763 0.78800005 4294901502
-0.0075944914 0.21057451 0.78900003 4294901502
0.00058277807 0.17774731 0.66600001 4290688716
0.0017509594 0.1780142 0.66700006 4289441729
0.0029182658 0.1780142 0.66700006 4289572534
-0.18591057 0.2060453 0.76700002 4286878887
-0.18093508 0.20497073 0.76300001 4292535279
-0.17959978 0.20497073 0.76300001 4293192175
-0.17709628 0.20362756 0.75800002 4293520624
-0.17507406 0.20282166 0.75500005 4293849842
-0.17375275 0.20282166 0.75500005 4293849588
-0.17197466 0.20228437 0.75300002 4293915124
-0.17043021 0.20201573 0.75200003 4293915124
-0.16911414 0.20201573 0.75200003 4293915380
-0.16735181 0.20147847 0.75000006 4293915380
-0.16603926 0.20147847 0.75000006 4293981172
-0.16406778 0.20067254 0.74700004 4293980917
-0.16276047 0.20067254 0.74700004 4293980917
-0.16145314 0.20067254 0.74700004 4293980917
-0.16014585 0.20067254 0.74700004 4294047221
-0.15841326 0.20013528 0.74500006 4294046710
-0.15710945 0.20013528 0.74500006 4294046966
-0.15538736 0.199598 0.74300003 4293981174
-0.1532575 0.19852343 0.73900002 4293916150
-0.15134731 0.19771753 0.73600006 4293981431
-0.15026312 0.19798617 0.73700005 4294047479
-0.14877118 0.19771753 0.73600006 4294046967
-0.14748311 0.19771753 0.73600006 4294112503
-0.14579777 0.19718026 0.73400003 4294112759
-0.14411944 0.19664298 0.73200005 4294179063
-0.14283837 0.19664298 0.73200005 4294178552
-0.14155734 0.19664298 0.73200005 4294178295
-0.14008462 0.19637433 0.73100001 4294178295
-0.1388053 0.19637433 0.73100001 4294178294
-0.13714972 0.19583705 0.72900003 4294178294
-0.13587391 0.19583705 0.72900003 4294178294
-0.13441348 0.19556843 0.72800004 4294112502
-0.13277365 0.19503114 0.72600001 4294112501
-0.13150308 0.19503114 0.72600001 4293981173
-0.13005313 0.19476251 0.72500002 4293915381
-0.12842907 0.19422524 0.72300005 4293981173
-0.12698787 0.1939566 0.72200006 4294113780
-0.12572432 0.1939566 0.72200006 4294112500
-0.12446075 0.1939566 0.72200006 4294113013
-0.12319718 0.1939566 0.72200006 4294244086
-0.12159586 0.19341932 0.72000003 4294440952
-0.12033579 0.19341932 0.72000003 4294441210
-0.11907573 0.19341932 0.72000003 4294441724
-0.11781567 0.19341932 0.72000003 4294441470
-0.11830569 0.21491034 0.80000001 4294835966
-0.11690563 0.21491034 0.80000001 4294769918
-0.11550556 0.21491034 0.80000001 4294704894
-0.1141055 0.21491034 0.80000001 4294638590
-0.11270542 0.21491034 0.80000001 4294638076
-0.11130536 0.21491034 0.80000001 4294703867
-0.10990529 0.21491034 0.80000001 4294769659
-0.10850522 0.21491034 0.80000001 4294704123
-0.10710516 0.21491034 0.80000001 4294704379
-0.10570509 0.21491034 0.80000001 4294638587
-0.10430502 0.21491034 0.80000001 4294638843
-0.10290495 0.21491034 0.80000001 4294638844
-0.10125113 0.21437307 0.79800004 4294639357
-0.10010482 0.21491034 0.80000001 4294638846
-0.098457992 0.21437307 0.79800004 4294704894
-0.097061425 0.21437307 0.79800004 4294770174
-0.095544979 0.21410444 0.79700005 4294835966
-0.094150163 0.21410444 0.79700005 4294835710
-0.092755347 0.21410444 0.79700005 4294835966
-0.091360524 0.21410444 0.79700005 4294835710
-0.089965709 0.21410444 0.79700005 4294835966
-0.088682026 0.21437307 0.79800004 4294835710
-0.087176077 0.21410444 0.79700005 4294835966
-0.085781261 0.21410444 0.79700005 4294835966
-0.084386438 0.21410444 0.79700005 4294835966
-0.083095752 0.21437307 0.79800004 4294835710
-0.081699185 0.21437307 0.79800004 4294835709
-0.080302618 0.21437307 0.79800004 4294835709
-0.078906052 0.21437307 0.79800004 4294835709
-0.077412352 0.21410444 0.79700005 4294835709
-0.076017544 0.21410444 0.79700005 4294835965
-0.07462272 0.21410444 0.79700005 4294835966
-0.073227905 0.21410444 0.79700005 4294835966
-0.071652822 0.21356715 0.79500002 4294835710
-0.070261508 0.21356715 0.79500002 4294835966
-0.068870194 0.21356715 0.79500002 4294835966
-0.067478873 0.21356715 0.79500002 4294835966
-0.066087559 0.21356715 0.79500002 4294835966
-0.064696245 0.21356715 0.79500002 4294835966
-0.063145667 0.21302989 0.79300004 4294835710
-0.06191361 0.21356715 0.79500002 4294835966
-0.060522288 0.21356715 0.79500002 4294835710
-0.059130974 0.21356715 0.79500002 4294901502
-0.057594396 0.21302989 0.79300004 4294901502
-0.056348339 0.21356715 0.79500002 4294901502
-0.054957021 0.21356715 0.79500002 4294835966
-0.053430952 0.21302989 0.79300004 4294835966
-0.052043132 0.21302989 0.79300004 4294835710
-0.050655317 0.21302989 0.79300004 4294835966
-0.049267497 0.21302989 0.79300004 4294835710
-0.047879681 0.21302989 0.79300004 4294835966
-0.046374608 0.2124926 0.79100001 4294835966
-0.04499029 0.2124926 0.79100001 4294835966
-0.043605972 0.2124926 0.79100001 4294835710
-0.042221658 0.2124926 0.79100001 4294835966
-0.04083734 0.2124926 0.79100001 4294835966
-0.039453026 0.2124926 0.79100001 4294901502
-0.038068708 0.2124926 0.79100001 4294901246
-0.03668439 0.2124926 0.79100001 4294901502
-0.035210822 0.21195534 0.78900003 4294901246
-0.033830006 0.21195534 0.78900003 4294901502
-0.032449186 0.21195534 0.78900003 4294901502
-0.031068372 0.21195534 0.78900003 4294901502
-0.02964993 0.2116867 0.78800005 4294901502
-0.028270863 0.2116867 0.78800005 4294901502
-0.026891796 0.2116867 0.78800005 4294901502
-0.025512729 0.2116867 0.78800005 4294901502
-0.024133664 0.2116867 0.78800005 4294901502
-0.022754597 0.2116867 0.78800005 4294901502
-0.021375529 0.2116867 0.78800005 4294901502
-0.019996464 0.2116867 0.78800005 4294901502
-0.018617397 0.2116867 0.78800005 4294901502
-0.01723833 0.2116867 0.78800005 4294901502
-0.015879391 0.21195534 0.78900003 4294901246
-0.014498573 0.21195534 0.78900003 4294901502
-0.013101132 0.2116867 0.78800005 4294901502
-0.011722065 0.2116867 0.78800005 4294901502
-0.010316746 0.21114941 0.78600001 4294901502
-0.0089639314 0.2116867 0.78800005 4294901502
-0.0075944914 0.21195534 0.78900003 4294901502
0.00058277807 0.17891286 0.66600001 4290360764
0.0017509594 0.17918152 0.66700006 4289707708
0.0029182658 0.17918152 0.66700006 4289508797
-0.18456826 0.20738761 0.76700002 4288062903
-0.18322594 0.20738761 0.76700002 4290823632
-0.18140937 0.20684683 0.76500005 4291878633
-0.18007056 0.20684683 0.76500005 4292929517
-0.1777972 0.20576529 0.76100004 4293389809
-0.17623349 0.2054949 0.76000005 4293914866
-0.17398289 0.20441335 0.75600004 4293849587
-0.17265981 0.20441335 0.75600004 4293849587
-0.17111012 0.20414296 0.75500005 4293849588
-0.16933903 0.20360218 0.75300002 4293915124
