# .PCD v0.7 - Point Cloud Data file format
VERSION 0.7
FIELDS x y z rgba
SIZE 4 4 4 4
TYPE F F F U
COUNT 1 1 1 1
WIDTH 1053
HEIGHT 1
VIEWPOINT 0 0 0 1 0 0 0
POINTS 1053
DATA ascii
0.019341057 0.11167901 0.71300006 4279308047
0.020588867 0.11167901 0.71300006 4279176719
0.021867303 0.11183564 0.71400005 4279111440
0.023084488 0.11167901 0.71300006 4279176977
-0.066704459 0.11498579 0.72600001 4280623394
-0.065163516 0.11451064 0.72300005 4280360992
-0.063809827 0.11435226 0.72200006 4280097821
-0.062546261 0.11435226 0.72200006 4280163098
-0.061112944 0.11403549 0.72000003 4280228121
-0.059852883 0.11403549 0.72000003 4280031512
-0.058511443 0.11387711 0.71900004 4279834648
-0.056775361 0.11292682 0.71300006 4279834905
-0.055371791 0.11261005 0.71100003 4279900693
-0.054051355 0.11245167 0.71000004 4280097298
-0.052660033 0.11213489 0.708 4280293396
-0.051420975 0.11213489 0.708 4279965463
-0.050111037 0.11197652 0.70700002 4279703321
-0.048735473 0.11165976 0.70500004 4279769371
-0.047501665 0.11165976 0.70500004 4279900189
-0.046202227 0.11150137 0.70400006 4280031264
-0.04497017 0.11150137 0.70400006 4280227616
-0.043675978 0.11134299 0.70300001 4280031264
-0.042445667 0.11134299 0.70300001 4279834656
-0.041098107 0.11102622 0.70100003 4279900705
-0.039871298 0.11102622 0.70100003 4279966241
-0.038644485 0.11102622 0.70100003 4280162338
-0.037417676 0.11102622 0.70100003 4280425254
-0.036190867 0.11102622 0.70100003 4280359978
-0.034964059 0.11102622 0.70100003 4280295210
-0.033689126 0.11086784 0.70000005 4280361770
-0.032464065 0.11086784 0.70000005 4280493613
-0.031149749 0.11055107 0.69800001 4280953137
-0.029885313 0.11039269 0.69700003 4281477421
-0.028665507 0.11039269 0.69700003 4280953130
-0.027366944 0.11007593 0.69500005 4280493349
-0.026150635 0.11007593 0.69500005 4280229921
-0.024934327 0.11007593 0.69500005 4280031772
-0.023718018 0.11007593 0.69500005 4279834903
-0.022501709 0.11007593 0.69500005 4279637526
-0.021285402 0.11007593 0.69500005 4279571733
-0.020069093 0.11007593 0.69500005 4279571734
-0.018852783 0.11007593 0.69500005 4279571736
-0.017636474 0.11007593 0.69500005 4279571740
-0.016467419 0.11039269 0.69700003 4279637281
-0.015247609 0.11039269 0.69700003 4279769892
-0.0140278 0.11039269 0.69700003 4279967783
-0.01277124 0.11007593 0.69500005 4280164648
-0.011554932 0.11007593 0.69500005 4280296489
-0.010368375 0.11039269 0.69700003 4280427818
-0.0091223149 0.11007593 0.69500005 4280559148
-0.0079060057 0.11007593 0.69500005 4280755755
-0.0067089479 0.11039269 0.69700003 4280952618
-0.0054891394 0.11039269 0.69700003 4281213990
-0.0042754561 0.11055107 0.69800001 4280820002
-0.0030538971 0.11055107 0.69800001 4280425758
-0.0018323383 0.11055107 0.69800001 4280097307
-0.00061252952 0.11086784 0.70000005 4279833879
0.00061252952 0.11086784 0.70000005 4279571219
0.0018375886 0.11086784 0.70000005 4279374097
0.0030670227 0.11102622 0.70100003 4279242768
0.0043060821 0.11134299 0.70300001 4279176718
0.0055363914 0.11134299 0.70300001 4279110668
0.0067667011 0.11134299 0.70300001 4279110669
0.008008386 0.11150137 0.70400006 4279241742
0.0092535708 0.11165976 0.70500004 4279373070
0.01048738 0.11165976 0.70500004 4279241742
0.011754441 0.11197652 0.70700002 4279110927
0.012991751 0.11197652 0.70700002 4279111185
0.014309565 0.11261005 0.71100003 4279111183
0.015553875 0.11261005 0.71100003 4279242254
0.016798183 0.11261005 0.71100003 4279373070
0.018042494 0.11261005 0.71100003 4279438607
0.019341057 0.11292682 0.71300006 4279504399
0.020617744 0.1130852 0.71400005 4279308047
0.021867303 0.1130852 0.71400005 4279176975
0.023116864 0.1130852 0.71400005 4279177232
0.024468804 0.11356035 0.71700001 4279242768
-0.066704459 0.11625635 0.72600001 4280492578
-0.065343775 0.11609621 0.72500002 4280295200
-0.063898206 0.11577595 0.72300005 4280163357
-0.062546261 0.11561582 0.72200006 4280163099
-0.061282702 0.11561582 0.72200006 4280162842
-0.060019143 0.11561582 0.72200006 4279965977
-0.058592819 0.11529556 0.72000003 4279835161
-0.056854993 0.11433475 0.71400005 4279834905
-0.055527553 0.11417462 0.71300006 4279835414
-0.054127481 0.11385436 0.71100003 4279966227
-0.052808795 0.11369423 0.71000004 4280097557
-0.051420975 0.11337395 0.708 4279899927
-0.050181914 0.11337395 0.708 4279703064
-0.048873726 0.11321382 0.70700002 4279769113
-0.04763642 0.11321382 0.70700002 4279900701
-0.046267856 0.11289357 0.70500004 4279965729
-0.04497017 0.11273344 0.70400006 4280030753
-0.043738108 0.11273344 0.70400006 4279899937
-0.04250605 0.11273344 0.70400006 4279834401
-0.04121536 0.1125733 0.70300001 4279834913
-0.03998505 0.1125733 0.70300001 4279834913
-0.038754743 0.1125733 0.70300001 4279966242
-0.037524432 0.1125733 0.70300001 4280163878
-0.036190867 0.11225303 0.70100003 4280163883
-0.034964059 0.11225303 0.70100003 4280164651
-0.033689126 0.1120929 0.70000005 4280296235
-0.032464065 0.1120929 0.70000005 4280428076
-0.031239005 0.1120929 0.70000005 4280821806
-0.030013947 0.1120929 0.70000005 4281215532
-0.028706631 0.11177263 0.69800001 4280821802
-0.027445698 0.1116125 0.69700003 4280493348
-0.026225887 0.1116125 0.69700003 4280229663
-0.024934327 0.11129224 0.69500005 4279966233
-0.023718018 0.11129224 0.69500005 4279768851
-0.022566462 0.1116125 0.69700003 4279571732
-0.021346653 0.1116125 0.69700003 4279505685
-0.020126846 0.1116125 0.69700003 4279505941
-0.018907035 0.1116125 0.69700003 4279571477
-0.017687228 0.1116125 0.69700003 4279637018
-0.016491044 0.11177263 0.69800001 4279769119
-0.015269485 0.11177263 0.69800001 4279901731
-0.014047927 0.11177263 0.69800001 4280033319
-0.012826367 0.11177263 0.69800001 4280230184
-0.011604808 0.11177263 0.69800001 4280362026
-0.01038325 0.11177263 0.69800001 4280559659
-0.0091485651 0.1116125 0.69700003 4280624684
-0.0079401322 0.11177263 0.69800001 4280756010
-0.0067185732 0.11177263 0.69800001 4280821289
-0.0054970146 0.11177263 0.69800001 4280951846
-0.0042877067 0.1120929 0.70000005 4280623395
-0.0030626475 0.1120929 0.70000005 4280360734
-0.0018375886 0.1120929 0.70000005 4280031514
-0.00061252952 0.1120929 0.70000005 4279702806
0.00061340455 0.11225303 0.70100003 4279505683
0.0018402137 0.11225303 0.70100003 4279374097
0.0030757731 0.1125733 0.70300001 4279242512
0.0043060821 0.1125733 0.70300001 4279176718
0.0055442671 0.11273344 0.70400006 4279110924
0.006785952 0.11289357 0.70500004 4279110925
0.0080425125 0.11321382 0.70700002 4279176206
0.0092929471 0.11337395 0.708 4279242254
0.010561759 0.11369423 0.71000004 4279176462
0.011820945 0.11385436 0.71100003 4279110929
0.013065254 0.11385436 0.71100003 4279110932
0.014309565 0.11385436 0.71100003 4279111185
0.015597627 0.11417462 0.71300006 4279176462
0.016845437 0.11417462 0.71300006 4279241742
0.018118624 0.11433475 0.71400005 4279372815
0.019368183 0.11433475 0.71400005 4279504143
0.02070437 0.11481515 0.71700001 4279307792
0.021959184 0.11481515 0.71700001 4279177231
0.023213992 0.11481515 0.71700001 4279176975
0.024468804 0.11481515 0.71700001 4279242512
-0.066704459 0.1175269 0.72600001 4280426274
-0.065163516 0.11704126 0.72300005 4280294943
-0.063809827 0.11687938 0.72200006 4280228893
-0.062546261 0.11687938 0.72200006 4280163611
-0.061282702 0.11687938 0.72200006 4280097306
-0.060019143 0.11687938 0.72200006 4279966233
-0.058592819 0.11655562 0.72000003 4279834903
-0.05725313 0.11639374 0.71900004 4279834390
-0.055527553 0.11542244 0.71300006 4279834900
-0.054127481 0.11509867 0.71100003 4279835154
-0.052808795 0.11493678 0.71000004 4279900436
-0.051420975 0.11461301 0.708 4279768855
-0.050181914 0.11461301 0.708 4279703319
-0.048873726 0.11445113 0.70700002 4279769368
-0.04763642 0.11445113 0.70700002 4279900188
-0.046267856 0.11412737 0.70500004 4279900448
-0.045034047 0.11412737 0.70500004 4279900192
-0.043800235 0.11412737 0.70500004 4279835425
-0.04250605 0.11396549 0.70400006 4279835169
-0.041273989 0.11396549 0.70400006 4279769889
-0.03998505 0.11380361 0.70300001 4279704353
-0.038754743 0.11380361 0.70300001 4279835938
-0.037417676 0.11347985 0.70100003 4279967525
-0.036190867 0.11347985 0.70100003 4280033577
-0.034964059 0.11347985 0.70100003 4280098857
-0.033689126 0.11331797 0.70000005 4280230698
-0.032464065 0.11331797 0.70000005 4280427819
-0.031239005 0.11331797 0.70000005 4280690477
-0.029928191 0.11299419 0.69800001 4281018412
-0.028706631 0.11299419 0.69800001 4280756524
-0.027485073 0.11299419 0.69800001 4280493094
-0.026225887 0.11283231 0.69700003 4280164385
-0.02500608 0.11283231 0.69700003 4279900442
-0.023786271 0.11283231 0.69700003 4279703060
-0.022566462 0.11283231 0.69700003 4279571221
-0.021346653 0.11283231 0.69700003 4279505175
-0.020126846 0.11283231 0.69700003 4279505687
-0.018907035 0.11283231 0.69700003 4279571736
-0.017712602 0.11299419 0.69800001 4279702812
-0.016491044 0.11299419 0.69800001 4279900448
-0.015313239 0.11331797 0.70000005 4280098081
-0.014047927 0.11299419 0.69800001 4280164899
-0.012826367 0.11299419 0.69800001 4280296231
-0.011604808 0.11299419 0.69800001 4280493867
-0.010413001 0.11331797 0.70000005 4280755757
-0.0091616912 0.11299419 0.69800001 4280755503
-0.0079401322 0.11299419 0.69800001 4280821036
-0.0067185732 0.11299419 0.69800001 4280756266
-0.0055127656 0.11331797 0.70000005 4280755495
-0.0042877067 0.11331797 0.70000005 4280558372
-0.0030626475 0.11331797 0.70000005 4280360480
-0.0018402137 0.11347985 0.70100003 4279965980
-0.00061340455 0.11347985 0.70100003 4279637271
0.00061340455 0.11347985 0.70100003 4279505683
0.0018402137 0.11347985 0.70100003 4279439633
0.0030757731 0.11380361 0.70300001 4279308560
0.0043122079 0.11396549 0.70400006 4279242254
0.0055442671 0.11396549 0.70400006 4279176717
0.006785952 0.11412737 0.70500004 4279110927
0.0080425125 0.11445113 0.70700002 4279110929
0.0092929471 0.11461301 0.708 4279110927
0.010561759 0.11493678 0.71000004 4279111182
0.011820945 0.11509867 0.71100003 4279110927
0.013102007 0.11542244 0.71300006 4279111185
0.014349817 0.11542244 0.71300006 4279110927
0.015619502 0.11558432 0.71400005 4279110670
0.016869063 0.11558432 0.71400005 4279110670
0.018169375 0.11590809 0.71600002 4279307535
0.019422436 0.11590809 0.71600002 4279504143
0.02070437 0.11606997 0.71700001 4279373071
0.022020435 0.11639374 0.71900004 4279242511
0.023213992 0.11606997 0.71700001 4279242768
0.024537059 0.11639374 0.71900004 4279242768
-0.063809827 0.11814294 0.72200006 4280228637
-0.062546261 0.11814294 0.72200006 4280097308
-0.061112944 0.11781567 0.72000003 4280031259
-0.060019143 0.11814294 0.72200006 4279965978
-0.058592819 0.11781567 0.72000003 4279966230
-0.05725313 0.11765204 0.71900004 4279900435
-0.055839062 0.11732477 0.71700001 4279835154
-0.054355871 0.11683388 0.71400005 4279900434
-0.052808795 0.11617935 0.71000004 4280031764
-0.051566236 0.11617935 0.71000004 4279834391
-0.050181914 0.11585207 0.708 4279703063
-0.048942856 0.11585207 0.708 4279768855
-0.047703795 0.11585207 0.708 4279834395
-0.046399109 0.11568844 0.70700002 4279965472
-0.045161799 0.11568844 0.70700002 4280096800
-0.043800235 0.11536118 0.70500004 4279966241
-0.042566426 0.11536118 0.70500004 4279835425
-0.041332617 0.11536118 0.70500004 4279835426
-0.040041927 0.11519755 0.70400006 4279900962
-0.038809873 0.11519755 0.70400006 4279967011
-0.037524432 0.11503391 0.70300001 4280099109
-0.036294121 0.11503391 0.70300001 4280098343
-0.035063811 0.11503391 0.70300001 4280098344
-0.03373725 0.11470665 0.70100003 4280230186
-0.032464065 0.11454302 0.70000005 4280362283
-0.031239005 0.11454302 0.70000005 4280624685
-0.030013947 0.11454302 0.70000005 4280953134
-0.028788887 0.11454302 0.70000005 4280690479
-0.027563829 0.11454302 0.70000005 4280427305
-0.026263515 0.11421575 0.69800001 4280229411
-0.02500608 0.11405212 0.69700003 4280031004
-0.023786271 0.11405212 0.69700003 4279768341
-0.022566462 0.11405212 0.69700003 4279570967
-0.021377278 0.11421575 0.69800001 4279505434
-0.020126846 0.11405212 0.69700003 4279505690
-0.018934162 0.11421575 0.69800001 4279637019
-0.017712602 0.11421575 0.69800001 4279768350
-0.016538298 0.11454302 0.70000005 4279966241
-0.015313239 0.11454302 0.70000005 4280229664
-0.014088178 0.11454302 0.70000005 4280230175
-0.01286312 0.11454302 0.70000005 4280296485
-0.011638061 0.11454302 0.70000005 4280558892
-0.010413001 0.11454302 0.70000005 4280821295
-0.0091879433 0.11454302 0.70000005 4280886578
-0.0079628835 0.11454302 0.70000005 4281017135
-0.006737825 0.11454302 0.70000005 4280887084
-0.0055127656 0.11454302 0.70000005 4280821544
-0.0042938315 0.11470665 0.70100003 4280492837
-0.0030670227 0.11470665 0.70100003 4280229665
-0.0018402137 0.11470665 0.70100003 4279900446
-0.00061340455 0.11470665 0.70100003 4279637272
0.00061515463 0.11503391 0.70300001 4279505683
0.0018454638 0.11503391 0.70300001 4279374353
0.0030801485 0.11519755 0.70400006 4279242768
0.0043122079 0.11519755 0.70400006 4279176975
0.0055521424 0.11536118 0.70500004 4279110926
0.006785952 0.11536118 0.70500004 4279045649
0.0080425125 0.11568844 0.70700002 4279045396
0.0092929471 0.11585207 0.708 4279111185
0.010561759 0.11617935 0.71000004 4279045390
0.011820945 0.11634298 0.71100003 4279045646
0.013102007 0.11667025 0.71300006 4279045390
0.014349817 0.11667025 0.71300006 4279110670
0.015663253 0.11716114 0.71600002 4279110670
0.016916314 0.11716114 0.71600002 4279110670
0.018169375 0.11716114 0.71600002 4279307535
0.019422436 0.11716114 0.71600002 4279504143
0.02070437 0.11732477 0.71700001 4279438863
0.022020435 0.11765204 0.71900004 4279374096
0.023278747 0.11765204 0.71900004 4279242769
-0.062373009 0.11907573 0.72000003 4280097820
-0.061112944 0.11907573 0.72000003 4279965978
-0.060019143 0.11940651 0.72200006 4280031257
-0.05875558 0.11940651 0.72200006 4280162583
-0.05725313 0.11891035 0.71900004 4280031765
-0.055839062 0.11857958 0.71700001 4279900436
-0.054355871 0.11808345 0.71400005 4280031251
-0.053031929 0.11791805 0.71300006 4280162580
-0.05163886 0.11758728 0.71100003 4279900182
-0.050323673 0.1174219 0.71000004 4279703319
-0.048942856 0.11709113 0.708 4279769368
-0.047703795 0.11709113 0.708 4279834650
-0.046464734 0.11709113 0.708 4280096797
-0.04522568 0.11709113 0.708 4280359199
-0.043924492 0.11692575 0.70700002 4280097569
-0.042687181 0.11692575 0.70700002 4279901217
-0.041449871 0.11692575 0.70700002 4279967010
-0.040098809 0.11659499 0.70500004 4280097570
-0.038864996 0.11659499 0.70500004 4280163107
-0.037524432 0.11626422 0.70300001 4280229156
-0.03634575 0.11642962 0.70400006 4280163365
-0.035063811 0.11626422 0.70300001 4280163878
-0.03373725 0.11593346 0.70100003 4280230184
-0.032510445 0.11593346 0.70100003 4280362025
-0.031283632 0.11593346 0.70100003 4280624682
-0.030056823 0.11593346 0.70100003 4280952874
-0.028830014 0.11593346 0.70100003 4280690987
-0.027563829 0.11576807 0.70000005 4280427303
-0.026338769 0.11576807 0.70000005 4280295459
-0.025041955 0.11543731 0.69800001 4280162590
-0.023820397 0.11543731 0.69800001 4279834137
-0.022598838 0.11543731 0.69800001 4279571223
-0.021377278 0.11543731 0.69800001 4279571222
-0.02015572 0.11543731 0.69800001 4279571222
-0.018934162 0.11543731 0.69800001 4279702807
-0.017763356 0.11576807 0.70000005 4279899674
-0.016538298 0.11576807 0.70000005 4280097566
-0.015313239 0.11576807 0.70000005 4280360223
-0.014088178 0.11576807 0.70000005 4280361505
-0.01286312 0.11576807 0.70000005 4280361765
-0.011638061 0.11576807 0.70000005 4280624426
-0.010413001 0.11576807 0.70000005 4280886829
-0.0091879433 0.11576807 0.70000005 4281018672
-0.0079628835 0.11576807 0.70000005 4281214765
-0.006737825 0.11576807 0.70000005 4281018922
-0.0055206413 0.11593346 0.70100003 4280887078
-0.0042938315 0.11593346 0.70100003 4280493347
-0.0030670227 0.11593346 0.70100003 4280098591
-0.0018402137 0.11593346 0.70100003 4279835164
-0.00061515463 0.11626422 0.70300001 4279637527
0.00061515463 0.11626422 0.70300001 4279505939
0.0018454638 0.11626422 0.70300001 4279374097
0.0030801485 0.11642962 0.70400006 4279242767
0.0043183332 0.11659499 0.70500004 4279176718
0.0055521424 0.11659499 0.70500004 4279110925
0.0068052029 0.11692575 0.70700002 4279045390
0.0080425125 0.11692575 0.70700002 4279045648
0.0092929471 0.11709113 0.708 4279110926
0.010561759 0.1174219 0.71000004 4279045389
0.011820945 0.11758728 0.71100003 4279045389
0.013102007 0.11791805 0.71300006 4279045646
0.014349817 0.11791805 0.71300006 4279110926
0.01568513 0.11857958 0.71700001 4279110670
0.016939942 0.11857958 0.71700001 4279176717
0.01819475 0.11857958 0.71700001 4279308556
0.019449562 0.11857958 0.71700001 4279504652
0.020762125 0.11891035 0.71900004 4279504397
0.022020435 0.11891035 0.71900004 4279570446
0.023278747 0.11891035 0.71900004 4279373840
-0.063633062 0.12033579 0.72000003 4280229662
-0.062373009 0.12033579 0.72000003 4280032285
-0.061112944 0.12033579 0.72000003 4279835163
-0.060019143 0.12067007 0.72200006 4279900441
-0.05875558 0.12067007 0.72200006 4280031512
-0.057332762 0.12033579 0.72000003 4279966231
-0.055839062 0.1198344 0.71700001 4279900950
-0.054508127 0.11966725 0.71600002 4279966485
-0.053031929 0.11916588 0.71300006 4280032533
-0.051784121 0.11916588 0.71300006 4279965974
-0.050394554 0.1188316 0.71100003 4279899927
-0.049081117 0.11866446 0.71000004 4279900185
-0.047838554 0.11866446 0.71000004 4279900697
-0.046464734 0.1183302 0.708 4280031514
-0.04522568 0.1183302 0.708 4280163101
-0.043986619 0.1183302 0.708 4279966497
-0.042747557 0.1183302 0.708 4279770401
-0.041449871 0.11816306 0.70700002 4279835682
-0.040098809 0.11782881 0.70500004 4279900962
-0.038864996 0.11782881 0.70500004 4279966499
-0.037577812 0.11766167 0.70400006 4280032803
-0.03634575 0.11766167 0.70400006 4280032547
-0.035063811 0.11749452 0.70300001 4280032804
-0.033833504 0.11749452 0.70300001 4280164902
-0.032510445 0.11716027 0.70100003 4280297511
-0.031283632 0.11716027 0.70100003 4280690472
-0.030056823 0.11716027 0.70100003 4281084200
-0.028830014 0.11716027 0.70100003 4280690472
-0.027603205 0.11716027 0.70100003 4280296486
-0.026338769 0.11699314 0.70000005 4280098340
-0.025113711 0.11699314 0.70000005 4279965728
-0.023888651 0.11699314 0.70000005 4279768605
-0.022663591 0.11699314 0.70000005 4279571736
-0.021438533 0.11699314 0.70000005 4279440403
-0.020213475 0.11699314 0.70000005 4279374867
-0.018988414 0.11699314 0.70000005 4279506196
-0.017763356 0.11699314 0.70000005 4279703063
-0.016538298 0.11699314 0.70000005 4279900699
-0.015313239 0.11699314 0.70000005 4280097823
-0.014088178 0.11699314 0.70000005 4280164387
-0.01286312 0.11699314 0.70000005 4280296486
-0.011638061 0.11699314 0.70000005 4280493353
-0.010427877 0.11716027 0.70100003 4280690475
-0.0092010684 0.11716027 0.70100003 4280821550
-0.0079742596 0.11716027 0.70100003 4281018155
-0.0067474502 0.11716027 0.70100003 4280821545
-0.0055363914 0.11749452 0.70300001 4280690725
-0.0043060821 0.11749452 0.70300001 4280362274
-0.0030757731 0.11749452 0.70300001 4280099358
-0.0018454638 0.11749452 0.70300001 4279835675
-0.00061602972 0.11766167 0.70400006 4279637783
0.00061602972 0.11766167 0.70400006 4279505939
0.0018454638 0.11749452 0.70300001 4279374097
0.0030801485 0.11766167 0.70400006 4279177231
0.0043183332 0.11782881 0.70500004 4279045902
0.0055521424 0.11782881 0.70500004 4278980109
0.0068052029 0.11816306 0.70700002 4278914317
0.0080425125 0.11816306 0.70700002 4278979853
0.0092929471 0.1183302 0.708 4279045389
0.010561759 0.11866446 0.71000004 4279045389
0.011820945 0.1188316 0.71100003 4279045389
0.013102007 0.11916588 0.71300006 4279045390
0.014349817 0.11916588 0.71300006 4279046158
0.01568513 0.1198344 0.71700001 4279045646
0.016939942 0.1198344 0.71700001 4279111692
0.01819475 0.1198344 0.71700001 4279242762
0.019449562 0.1198344 0.71700001 4279374090
0.020762125 0.12016866 0.71900004 4279242763
0.022051062 0.12033579 0.72000003 4279177485
0.023311123 0.12033579 0.72000003 4279177232
-0.062373009 0.12159586 0.72000003 4279967005
-0.061112944 0.12159586 0.72000003 4279769883
-0.059852883 0.12159586 0.72000003 4279835418
-0.05875558 0.12193362 0.72200006 4279900442
-0.057332762 0.12159586 0.72000003 4279900699
-0.055994824 0.12142698 0.71900004 4279966488
-0.054584254 0.1210892 0.71700001 4279966997
-0.053031929 0.12041368 0.71300006 4279966485
-0.051856749 0.12058256 0.71400005 4280031766
-0.050536312 0.12041368 0.71300006 4280162327
-0.049150243 0.12007591 0.71100003 4280031769
-0.047905933 0.12007591 0.71100003 4279966233
-0.046661623 0.12007591 0.71100003 4279966234
-0.045353435 0.11990704 0.71000004 4279966493
-0.044110876 0.11990704 0.71000004 4279769889
-0.042747557 0.11956925 0.708 4279638817
-0.0415085 0.11956925 0.708 4279704610
-0.04021256 0.11940037 0.70700002 4279769890
-0.03897525 0.11940037 0.70700002 4279769890
-0.037631188 0.11906261 0.70500004 4279835937
-0.036397379 0.11906261 0.70500004 4279901729
-0.035113692 0.11889373 0.70400006 4279967524
-0.033881631 0.11889373 0.70400006 4280099111
-0.032603193 0.11872484 0.70300001 4280296489
-0.031372886 0.11872484 0.70300001 4280755756
-0.030056823 0.11838707 0.70100003 4281214505
-0.028830014 0.11838707 0.70100003 4280690471
-0.027603205 0.11838707 0.70100003 4280164901
-0.026376396 0.11838707 0.70100003 4279967523
-0.025149586 0.11838707 0.70100003 4279834910
-0.023888651 0.11821819 0.70000005 4279703065
-0.022663591 0.11821819 0.70000005 4279637270
-0.021438533 0.11821819 0.70000005 4279375379
-0.020213475 0.11821819 0.70000005 4279178261
-0.018988414 0.11821819 0.70000005 4279375383
-0.017763356 0.11821819 0.70000005 4279572249
-0.016538298 0.11821819 0.70000005 4279704603
-0.015335115 0.11838707 0.70100003 4279835936
-0.014088178 0.11821819 0.70000005 4280033061
-0.012881495 0.11838707 0.70100003 4280296231
-0.011654686 0.11838707 0.70100003 4280428330
-0.010427877 0.11838707 0.70100003 4280559149
-0.0092273187 0.11872484 0.70300001 4280690736
-0.0079970099 0.11872484 0.70300001 4280887084
-0.0067667011 0.11872484 0.70300001 4280690473
-0.0055442671 0.11889373 0.70400006 4280559398
-0.0043122079 0.11889373 0.70400006 4280362788
-0.0030801485 0.11889373 0.70400006 4280164895
-0.0018480892 0.11889373 0.70400006 4279901723
-0.00061602972 0.11889373 0.70400006 4279703318
0.00061602972 0.11889373 0.70400006 4279571474
0.0018507143 0.11906261 0.70500004 4279439889
0.0030845236 0.11906261 0.70500004 4279178000
0.0043305838 0.11940037 0.70700002 4278980623
0.0055678929 0.11940037 0.70700002 4278914830
0.0068052029 0.11940037 0.70700002 4278848783
0.0080425125 0.11940037 0.70700002 4278914320
0.009279822 0.11940037 0.70700002 4279045136
0.010561759 0.11990704 0.71000004 4279045392
0.011820945 0.12007591 0.71100003 4279045390
0.013102007 0.12041368 0.71300006 4278979853
0.014369942 0.12058256 0.71400005 4278979853
0.015663253 0.12092032 0.71600002 4279045390
0.016939942 0.1210892 0.71700001 4279111437
0.01819475 0.1210892 0.71700001 4279177484
0.019449562 0.1210892 0.71700001 4279242764
0.020762125 0.12142698 0.71900004 4279046412
0.022051062 0.12159586 0.72000003 4278849549
0.023375878 0.12193362 0.72200006 4278980879
0.024741817 0.12244027 0.72500002 4279177232
0.026118258 0.12294693 0.72800004 4279176978
0.027429948 0.12311581 0.72900003 4279242770
-0.05875558 0.12319718 0.72200006 4279900701
-0.057492021 0.12319718 0.72200006 4279900704
-0.055994824 0.12268528 0.71900004 4279900954
-0.054736514 0.12268528 0.71900004 4279966485
-0.053255063 0.12217339 0.71600002 4280097558
-0.051856749 0.12183212 0.71400005 4280031511
-0.050536312 0.1216615 0.71300006 4280030488
-0.0492885 0.1216615 0.71300006 4279900186
-0.048040692 0.1216615 0.71300006 4279769626
-0.046792883 0.1216615 0.71300006 4279835163
-0.045417313 0.12132022 0.71100003 4279901470
-0.044173002 0.12132022 0.71100003 4279835425
-0.042868316 0.12114959 0.71000004 4279769889
-0.041625757 0.12114959 0.71000004 4279704354
-0.040269438 0.12080831 0.708 4279704354
-0.03897525 0.12063769 0.70700002 4279770146
-0.037631188 0.12029642 0.70500004 4279836193
-0.036397379 0.12029642 0.70500004 4279901984
-0.03516357 0.12029642 0.70500004 4279968292
-0.033881631 0.12012579 0.70400006 4280099369
-0.032649577 0.12012579 0.70400006 4280230957
-0.031417515 0.12012579 0.70400006 4280558385
-0.030142574 0.11995515 0.70300001 4280951595
-0.028912267 0.11995515 0.70300001 4280623654
-0.027681958 0.11995515 0.70300001 4280294948
-0.026376396 0.11961389 0.70100003 4280097827
-0.025149586 0.11961389 0.70100003 4279900444
-0.023922777 0.11961389 0.70100003 4279703062
-0.022663591 0.11944326 0.70000005 4279571732
-0.021438533 0.11944326 0.70000005 4279440147
-0.02024235 0.11961389 0.70100003 4279374102
-0.018988414 0.11944326 0.70000005 4279440410
-0.017763356 0.11944326 0.70000005 4279572250
-0.016538298 0.11944326 0.70000005 4279704091
-0.015335115 0.11961389 0.70100003 4279901729
-0.014088178 0.11944326 0.70000005 4280033063
-0.012881495 0.11961389 0.70100003 4280230441
-0.011654686 0.11961389 0.70100003 4280427820
-0.010427877 0.11961389 0.70100003 4280690223
-0.0092273187 0.11995515 0.70300001 4280821555
-0.008008386 0.12012579 0.70400006 4281018158
-0.0067763263 0.12012579 0.70400006 4280821289
-0.0055442671 0.12012579 0.70400006 4280690471
-0.0043122079 0.12012579 0.70400006 4280427814
-0.0030801485 0.12012579 0.70400006 4280164896
-0.0018480892 0.12012579 0.70400006 4279966491
-0.0006169047 0.12029642 0.70500004 4279768342
0.0006169047 0.12029642 0.70500004 4279571218
0.0018507143 0.12029642 0.70500004 4279374097
0.0030932738 0.12063769 0.70700002 4279242769
0.0043305838 0.12063769 0.70700002 4279111696
0.0055757686 0.12080831 0.708 4279045647
0.0068052029 0.12063769 0.70700002 4278980113
0.0080425125 0.12063769 0.70700002 4278979603
0.0092929471 0.12080831 0.708 4279045139
0.010561759 0.12114959 0.71000004 4279045139
0.011854196 0.1216615 0.71300006 4279045392
0.013120383 0.12183212 0.71400005 4279045389
0.014369942 0.12183212 0.71400005 4279045389
0.01568513 0.12234402 0.71700001 4279110926
0.016939942 0.12234402 0.71700001 4279242254
0.01819475 0.12234402 0.71700001 4279307791
0.019449562 0.12234402 0.71700001 4279373582
0.020762125 0.12268528 0.71900004 4279176718
0.022051062 0.12285592 0.72000003 4278980110
0.023375878 0.12319718 0.72200006 4279045903
0.024741817 0.12370908 0.72500002 4279177232
0.026118258 0.12422098 0.72800004 4279242770
-0.058836963 0.12463313 0.72300005 4279900699
-0.057492021 0.12446075 0.72200006 4279900701
-0.056072701 0.12411598 0.72000003 4279900696
-0.054736514 0.1239436 0.71900004 4280032276
-0.053329442 0.12359883 0.71700001 4280228630
-0.052002005 0.12342644 0.71600002 4280032280
-0.05060719 0.12308168 0.71400005 4279900440
-0.049357627 0.12308168 0.71400005 4279704089
-0.048040692 0.1229093 0.71300006 4279573017
-0.046792883 0.1229093 0.71300006 4279704346
-0.045417313 0.12256452 0.71100003 4279900701
-0.044110876 0.12239215 0.71000004 4279900449
-0.042868316 0.12239215 0.71000004 4279900705
-0.0415085 0.12204737 0.708 4279770402
-0.040269438 0.12204737 0.708 4279704611
-0.03897525 0.121875 0.70700002 4279770405
-0.037737943 0.121875 0.70700002 4279835939
-0.036500633 0.121875 0.70700002 4279902241
-0.03516357 0.12153023 0.70500004 4280033572
-0.033929758 0.12153023 0.70500004 4280099368
-0.032649577 0.12135784 0.70400006 4280164650
-0.031417515 0.12135784 0.70400006 4280427053
-0.030185455 0.12135784 0.70400006 4280754728
-0.028953394 0.12135784 0.70400006 4280557860
-0.027681958 0.12118545 0.70300001 4280426019
-0.026451647 0.12118545 0.70300001 4280163106
-0.025221338 0.12118545 0.70300001 4279965725
-0.023922777 0.12084069 0.70100003 4279768857
-0.02269597 0.12084069 0.70100003 4279571478
-0.021469159 0.12084069 0.70100003 4279571219
-0.02024235 0.12084069 0.70100003 4279571222
-0.019015541 0.12084069 0.70100003 4279571738
-0.017763356 0.12066831 0.70000005 4279637530
-0.016538298 0.12066831 0.70000005 4279835162
-0.015335115 0.12084069 0.70100003 4280032288
-0.014108305 0.12084069 0.70100003 4280098343
-0.012881495 0.12084069 0.70100003 4280164649
-0.011654686 0.12084069 0.70100003 4280493356
-0.010457628 0.12118545 0.70300001 4280886830
-0.0092404447 0.12135784 0.70400006 4281018416
-0.008008386 0.12135784 0.70400006 4281214765
-0.0067763263 0.12135784 0.70400006 4281017899
-0.0055521424 0.12153023 0.70500004 4280886568
-0.0043122079 0.12135784 0.70400006 4280493350
-0.0030801485 0.12135784 0.70400006 4280164384
-0.0018480892 0.12135784 0.70400006 4280032027
-0.0006169047 0.12153023 0.70500004 4279899670
0.00061865477 0.121875 0.70700002 4279636754
0.0018559643 0.121875 0.70700002 4279373841
0.0030932738 0.121875 0.70700002 4279308304
0.0043305838 0.121875 0.70700002 4279242511
0.0055757686 0.12204737 0.708 4279176718
0.0068148281 0.12204737 0.708 4279110928
0.0080538876 0.12204737 0.708 4279110675
0.0092929471 0.12204737 0.708 4279110675
0.010561759 0.12239215 0.71000004 4279045651
0.011870822 0.12308168 0.71400005 4279045392
0.013120383 0.12308168 0.71400005 4279045645
0.014430321 0.12359883 0.71700001 4279110925
0.01568513 0.12359883 0.71700001 4279242254
0.016987193 0.1239436 0.71900004 4279373070
0.01819475 0.12359883 0.71700001 4279438350
0.019449562 0.12359883 0.71700001 4279504142
0.020762125 0.1239436 0.71900004 4279307534
0.022051062 0.12411598 0.72000003 4279176718
0.023408253 0.12463313 0.72300005 4279176975
0.024673564 0.12463313 0.72300005 4279242512
-0.058836963 0.12589845 0.72300005 4279900698
-0.057492021 0.12572432 0.72200006 4279965978
-0.056072701 0.12537603 0.72000003 4280031767
-0.05481264 0.12537603 0.72000003 4280228372
-0.0534782 0.12520191 0.71900004 4280424983
-0.052074634 0.12485363 0.71700001 4280162586
-0.050748944 0.12467951 0.71600002 4279900441
-0.049357627 0.12433124 0.71400005 4279704089
-0.048108067 0.12433124 0.71400005 4279573785
-0.046858508 0.12433124 0.71400005 4279704090
-0.045417313 0.12380883 0.71100003 4279900445
-0.044173002 0.12380883 0.71100003 4279900449
-0.042868316 0.12363471 0.71000004 4279900705
-0.0415085 0.12328643 0.708 4279769634
-0.040269438 0.12328643 0.708 4279638821
-0.039030377 0.12328643 0.708 4279704360
-0.037737943 0.12311231 0.70700002 4279769893
-0.036500633 0.12311231 0.70700002 4279967011
-0.035263322 0.12311231 0.70700002 4280164645
-0.033929758 0.12276404 0.70500004 4280164391
-0.032695949 0.12276404 0.70500004 4280164136
-0.03146214 0.12276404 0.70500004 4280492330
-0.030228332 0.12276404 0.70500004 4280820774
-0.028994523 0.12276404 0.70500004 4280623395
-0.027721336 0.12258991 0.70400006 4280426530
-0.026451647 0.12241577 0.70300001 4280228898
-0.025257217 0.12258991 0.70400006 4280096799
-0.02399103 0.12241577 0.70300001 4279768348
-0.02269597 0.1220675 0.70100003 4279505688
-0.021469159 0.1220675 0.70100003 4279505684
-0.02024235 0.1220675 0.70100003 4279506199
-0.019015541 0.1220675 0.70100003 4279505946
-0.017788731 0.1220675 0.70100003 4279571481
-0.016561922 0.1220675 0.70100003 4279768857
-0.015335115 0.1220675 0.70100003 4280032544
-0.014108305 0.1220675 0.70100003 4280098600
-0.012918247 0.12241577 0.70300001 4280230698
-0.011687938 0.12241577 0.70300001 4280493356
-0.010457628 0.12241577 0.70300001 4280756013
-0.0092404447 0.12258991 0.70400006 4280887086
-0.008008386 0.12258991 0.70400006 4281083950
-0.0067763263 0.12258991 0.70400006 4280952622
-0.0055521424 0.12276404 0.70500004 4280886826
-0.0043183332 0.12276404 0.70500004 4280558631
-0.0030845236 0.12276404 0.70500004 4280295713
-0.0018507143 0.12276404 0.70500004 4279966748
-0.00061865477 0.12311231 0.70700002 4279703319
0.00061865477 0.12311231 0.70700002 4279505938
0.0018585895 0.12328643 0.708 4279373840
0.003097649 0.12328643 0.708 4279308047
0.0043367087 0.12328643 0.708 4279242510
0.0055915192 0.12363471 0.71000004 4279176462
0.0068148281 0.12328643 0.708 4279111184
0.0080538876 0.12328643 0.708 4279045139
0.0092929471 0.12328643 0.708 4279045139
0.010532007 0.12328643 0.708 4279045395
0.011820945 0.12380883 0.71100003 4279045136
0.013212262 0.12520191 0.71900004 4279045390
0.014490698 0.12537603 0.72000003 4279110926
0.015750758 0.12537603 0.72000003 4279241742
0.016987193 0.12520191 0.71900004 4279372814
0.018245505 0.12520191 0.71900004 4279438350
0.019503815 0.12520191 0.71900004 4279504142
0.020791002 0.12537603 0.72000003 4279307791
0.022142943 0.12589845 0.72300005 4279176975
0.023473006 0.12624671 0.72500002 4279176975
0.024775943 0.12642083 0.72600001 4279242512
0.026118258 0.12676911 0.72800004 4279308305
-0.058999717 0.12751551 0.72500002 4279900441
-0.057730902 0.12751551 0.72500002 4280030745
-0.056228459 0.12698787 0.72200006 4280162326
-0.0549649 0.12698787 0.72200006 4280424723
-0.053701341 0.12698787 0.72200006 4280686868
-0.05221989 0.12646022 0.71900004 4280293654
-0.050819822 0.12610845 0.71700001 4279900439
-0.049495883 0.12593256 0.71600002 4279704089
-0.048108067 0.1255808 0.71400005 4279573019
-0.046858508 0.1255808 0.71400005 4279769629
-0.045417313 0.12505315 0.71100003 4279965983
-0.044173002 0.12505315 0.71100003 4279900449
-0.042868316 0.12487727 0.71000004 4279900705
-0.041625757 0.12487727 0.71000004 4279704098
-0.040269438 0.12452549 0.708 4279573285
-0.039030377 0.12452549 0.708 4279639080
-0.037737943 0.12434962 0.70700002 4279704359
-0.036500633 0.12434962 0.70700002 4279966502
-0.035263322 0.12434962 0.70700002 4280294695
-0.033929758 0.12399784 0.70500004 4280229417
-0.032695949 0.12399784 0.70500004 4280164138
-0.03146214 0.12399784 0.70500004 4280558380
-0.030228332 0.12399784 0.70500004 4280951335
-0.028994523 0.12399784 0.70500004 4280688675
-0.027721336 0.12382197 0.70400006 4280426273
-0.026489278 0.12382197 0.70400006 4280294688
-0.025257217 0.12382197 0.70400006 4280227613
-0.02399103 0.12364608 0.70300001 4279833883
-0.022760721 0.12364608 0.70300001 4279505433
-0.02153041 0.12364608 0.70300001 4279439895
-0.020300101 0.12364608 0.70300001 4279440151
-0.019015541 0.12329431 0.70100003 4279505687
-0.017788731 0.12329431 0.70100003 4279571481
-0.016561922 0.12329431 0.70100003 4279833883
-0.015378865 0.12364608 0.70300001 4280097569
-0.014148557 0.12364608 0.70300001 4280164647
-0.012936624 0.12382197 0.70400006 4280296232
-0.011687938 0.12364608 0.70300001 4280428330
-0.010472505 0.12382197 0.70400006 4280624940
-0.0092404447 0.12382197 0.70400006 4280756526
-0.008008386 0.12382197 0.70400006 4280952877
-0.0067763263 0.12382197 0.70400006 4280887340
-0.0055521424 0.12399784 0.70500004 4280887081
-0.0043183332 0.12399784 0.70500004 4280624679
-0.0030845236 0.12399784 0.70500004 4280426530
-0.0018507143 0.12399784 0.70500004 4279967006
-0.00061865477 0.12434962 0.70700002 4279572504
0.0006195298 0.12452549 0.708 4279441170
0.0018585895 0.12452549 0.708 4279374353
0.003097649 0.12452549 0.708 4279308560
0.0043489593 0.12487727 0.71000004 4279242512
0.0055915192 0.12487727 0.71000004 4279176465
0.0068148281 0.12452549 0.708 4279110928
0.0080538876 0.12452549 0.708 4279045136
0.0093191992 0.12487727 0.71000004 4279045392
0.010576635 0.12505315 0.71100003 4279045648
0.011820945 0.12505315 0.71100003 4279045392
0.013212262 0.12646022 0.71900004 4279045649
0.014470572 0.12646022 0.71900004 4279110927
0.015728882 0.12646022 0.71900004 4279241742
0.017010819 0.1266361 0.72000003 4279372814
0.01827088 0.1266361 0.72000003 4279438350
0.019530941 0.1266361 0.72000003 4279504142
0.020848755 0.12698787 0.72200006 4279308046
0.022142943 0.12716375 0.72300005 4279176975
0.023473006 0.12751551 0.72500002 4279176976
0.024775943 0.12769139 0.72600001 4279242768
-0.057730902 0.12878433 0.72500002 4279900185
-0.056462094 0.12878433 0.72500002 4279966230
-0.055041026 0.12842907 0.72300005 4280096787
-0.053701341 0.12825143 0.72200006 4280293650
-0.052292518 0.12789616 0.72000003 4280162578
-0.05096158 0.12771854 0.71900004 4280031509
-0.049565013 0.12736325 0.71700001 4279703833
-0.048242822 0.12718563 0.71600002 4279441692
-0.046858508 0.12683037 0.71400005 4279703840
-0.045545071 0.12665273 0.71300006 4280031777
-0.044297259 0.12665273 0.71300006 4279966242
-0.042928692 0.12629746 0.71100003 4279901474
-0.041625757 0.12611982 0.71000004 4279704354
-0.040383194 0.12611982 0.71000004 4279573541
-0.039030377 0.12576455 0.708 4279704360
-0.037791319 0.12576455 0.708 4279901480
-0.036552258 0.12576455 0.708 4279966761
-0.0353132 0.12576455 0.708 4280098346
-0.034026016 0.12558691 0.70700002 4280098604
-0.032695949 0.12523165 0.70500004 4280164397
-0.03146214 0.12523165 0.70500004 4280427055
-0.030228332 0.12523165 0.70500004 4280689705
-0.028994523 0.12523165 0.70500004 4280492323
-0.027760712 0.12523165 0.70500004 4280295713
-0.026526904 0.12523165 0.70500004 4280097567
-0.025257217 0.12505403 0.70400006 4279964957
-0.024025157 0.12505403 0.70400006 4279702299
-0.022825474 0.12523165 0.70500004 4279505434
-0.02156104 0.12505403 0.70400006 4279505690
-0.02032898 0.12505403 0.70400006 4279505943
-0.01909692 0.12505403 0.70400006 4279440404
-0.017864862 0.12505403 0.70400006 4279440408
-0.016632801 0.12505403 0.70400006 4279703325
-0.015422619 0.12523165 0.70500004 4279966498
-0.014188808 0.12523165 0.70500004 4280098599
-0.012955 0.12523165 0.70500004 4280230952
-0.011704564 0.12505403 0.70400006 4280428073
-0.01048738 0.12523165 0.70500004 4280625195
-0.0092535708 0.12523165 0.70500004 4280887598
-0.0080197621 0.12523165 0.70500004 4281150252
-0.006785952 0.12523165 0.70500004 4281018667
-0.0055521424 0.12523165 0.70500004 4280887593
-0.0043183332 0.12523165 0.70500004 4280624423
-0.0030932738 0.12558691 0.70700002 4280360995
-0.0018559643 0.12558691 0.70700002 4279966496
-0.0006195298 0.12576455 0.708 4279637785
0.0006195298 0.12576455 0.708 4279505938
0.0018585895 0.12576455 0.708 4279374097
0.0031063997 0.12611982 0.71000004 4279242769
0.0043489593 0.12611982 0.71000004 4279176979
0.0055993944 0.12629746 0.71100003 4279110933
0.0068437043 0.12629746 0.71100003 4279111185
0.0080880141 0.12629746 0.71100003 4279045390
0.0093585756 0.12665273 0.71300006 4278980110
0.010606387 0.12665273 0.71300006 4278979854
0.011920699 0.12736325 0.71700001 4279045137
0.013175509 0.12736325 0.71700001 4279045396
0.014430321 0.12736325 0.71700001 4279045649
0.015728882 0.12771854 0.71900004 4279110670
0.017010819 0.12789616 0.72000003 4279241742
0.01827088 0.12789616 0.72000003 4279241998
0.019585194 0.12825143 0.72200006 4279307790
0.020935383 0.12878433 0.72500002 4279176718
0.022204194 0.12878433 0.72500002 4279046160
0.02350538 0.12896197 0.72600001 4279046162
0.024844198 0.12931724 0.72800004 4279112210
-0.057730902 0.13005313 0.72500002 4279834905
-0.056462094 0.13005313 0.72500002 4279834647
-0.055041026 0.12969437 0.72300005 4279834134
-0.053775717 0.12969437 0.72300005 4279899924
-0.052292518 0.12915622 0.72000003 4280031507
-0.051032458 0.12915622 0.72000003 4280162838
-0.04970327 0.12897684 0.71900004 4279769369
-0.048310198 0.12861806 0.71700001 4279375900
-0.046989761 0.12843868 0.71600002 4279704096
-0.045545071 0.12790054 0.71300006 4280097056
-0.044297259 0.12790054 0.71300006 4280031777
-0.043049447 0.12790054 0.71300006 4279966497
-0.041684382 0.12754177 0.71100003 4279770145
-0.040440071 0.12754177 0.71100003 4279638819
-0.039140638 0.12736239 0.71000004 4279835173
-0.037898075 0.12736239 0.71000004 4280097575
-0.036655515 0.12736239 0.71000004 4280032041
-0.035412956 0.12736239 0.71000004 4279967273
-0.034026016 0.12682423 0.70700002 4280033577
-0.032788705 0.12682423 0.70700002 4280164650
-0.031551391 0.12682423 0.70700002 4280296236
-0.030314086 0.12682423 0.70700002 4280492583
-0.028994523 0.12646547 0.70500004 4280295714
-0.027760712 0.12646547 0.70500004 4280163872
-0.026526904 0.12646547 0.70500004 4279900958
-0.025293095 0.12646547 0.70500004 4279703069
-0.024059284 0.12646547 0.70500004 4279636764
-0.022825474 0.12646547 0.70500004 4279571481
-0.021591665 0.12646547 0.70500004 4279571735
-0.020357857 0.12646547 0.70500004 4279571479
-0.019124046 0.12646547 0.70500004 4279440663
-0.017890237 0.12646547 0.70500004 4279309850
-0.016656429 0.12646547 0.70500004 4279573022
-0.015466371 0.12682423 0.70700002 4279835682
-0.014229059 0.12682423 0.70700002 4279967783
-0.012991751 0.12682423 0.70700002 4280165160
-0.011721189 0.12646547 0.70500004 4280362794
-0.01048738 0.12646547 0.70500004 4280624940
-0.0092535708 0.12646547 0.70500004 4281018926
-0.0080425125 0.12682423 0.70700002 4281411884
-0.006785952 0.12646547 0.70500004 4281149994
-0.0055678929 0.12682423 0.70700002 4280952872
-0.0043305838 0.12682423 0.70700002 4280624935
-0.0030932738 0.12682423 0.70700002 4280360994
-0.0018559643 0.12682423 0.70700002 4280031773
-0.0006195298 0.12700361 0.708 4279703064
0.0006195298 0.12700361 0.708 4279505428
0.0018638398 0.12736239 0.71000004 4279373842
0.0031063997 0.12736239 0.71000004 4279243025
0.0043550846 0.12754177 0.71100003 4279176723
0.0055993944 0.12754177 0.71100003 4279110933
0.0068629556 0.12790054 0.71300006 4279110929
0.0080880141 0.12754177 0.71100003 4279045646
0.0093585756 0.12790054 0.71300006 4278979853
0.010606387 0.12790054 0.71300006 4278979597
0.011854196 0.12790054 0.71300006 4279045134
0.013120383 0.12807992 0.71400005 4279045136
0.014430321 0.12861806 0.71700001 4279045135
0.015750758 0.12915622 0.72000003 4279045390
0.017010819 0.12915622 0.72000003 4279110926
0.01827088 0.12915622 0.72000003 4279111182
0.01974795 0.13059129 0.72800004 4279176718
0.021022014 0.13059129 0.72800004 4279045646
0.022296075 0.13059129 0.72800004 4278980623
0.023570135 0.13059129 0.72800004 4278981137
0.024878323 0.13077067 0.72900003 4278980881
-0.057730902 0.13132195 0.72500002 4279834906
-0.056462094 0.13132195 0.72500002 4279769369
-0.055041026 0.13095969 0.72300005 4279834393
-0.053701341 0.13077855 0.72200006 4279900182
-0.052292518 0.13041629 0.72000003 4280031764
-0.051032458 0.13041629 0.72000003 4280229142
-0.04970327 0.13023515 0.71900004 4279900441
-0.048242822 0.12969175 0.71600002 4279637276
-0.046989761 0.12969175 0.71600002 4279769120
-0.045608945 0.12932947 0.71400005 4279965984
-0.044297259 0.12914835 0.71300006 4279900449
-0.043049447 0.12914835 0.71300006 4279900448
-0.041684382 0.12878607 0.71100003 4279834912
-0.040440071 0.12878607 0.71100003 4279769633
-0.039195765 0.12878607 0.71100003 4279900706
-0.037951455 0.12878607 0.71100003 4280097573
-0.036707144 0.12878607 0.71100003 4280032553
-0.035412956 0.12860493 0.71000004 4279968040
-0.034026016 0.12806153 0.70700002 4280033575
-0.032788705 0.12806153 0.70700002 4280099112
-0.031551391 0.12806153 0.70700002 4280361257
-0.030314086 0.12806153 0.70700002 4280689189
-0.029076774 0.12806153 0.70700002 4280426530
-0.027760712 0.12769929 0.70500004 4280163872
-0.026526904 0.12769929 0.70500004 4279966238
-0.025293095 0.12769929 0.70500004 4279768861
-0.024059284 0.12769929 0.70500004 4279703069
-0.022825474 0.12769929 0.70500004 4279638296
-0.021591665 0.12769929 0.70500004 4279571732
-0.020357857 0.12769929 0.70500004 4279505943
-0.019124046 0.12769929 0.70500004 4279440666
-0.017890237 0.12769929 0.70500004 4279441180
-0.01670368 0.12806153 0.70700002 4279703839
-0.015488246 0.12824267 0.708 4279966499
-0.014229059 0.12806153 0.70700002 4280033063
-0.012991751 0.12806153 0.70700002 4280165417
-0.011754441 0.12806153 0.70700002 4280427819
-0.010517132 0.12806153 0.70700002 4280690477
-0.009279822 0.12806153 0.70700002 4280887343
-0.0080425125 0.12806153 0.70700002 4281149484
-0.0068052029 0.12806153 0.70700002 4281018410
-0.0055678929 0.12806153 0.70700002 4280887336
-0.0043305838 0.12806153 0.70700002 4280558631
-0.003097649 0.12824267 0.708 4280230177
-0.0018585895 0.12824267 0.708 4279966491
-0.0006195298 0.12824267 0.708 4279768344
0.00062127993 0.12860493 0.71000004 4279570710
0.0018638398 0.12860493 0.71000004 4279438867
0.0031107748 0.12878607 0.71100003 4279307793
0.0043550846 0.12878607 0.71100003 4279176211
0.0056151459 0.12914835 0.71300006 4279110677
0.0068629556 0.12914835 0.71300006 4279110929
0.0081107663 0.12914835 0.71300006 4279045390
0.0093585756 0.12914835 0.71300006 4279045389
0.010621262 0.12932947 0.71400005 4279045133
0.011870822 0.12932947 0.71400005 4279045645
0.013120383 0.12932947 0.71400005 4279045133
0.014410194 0.12969175 0.71600002 4279045389
0.015663253 0.12969175 0.71600002 4279045390
0.017081698 0.13095969 0.72300005 4279111182
0.018347008 0.13095969 0.72300005 4279110926
0.01974795 0.13186535 0.72800004 4279111182
0.021022014 0.13186535 0.72800004 4279045647
0.022296075 0.13186535 0.72800004 4279046159
0.023570135 0.13186535 0.72800004 4279046416
0.024878323 0.13204648 0.72900003 4279046929
-0.060268525 0.13259077 0.72500002 4279900701
-0.058999717 0.13259077 0.72500002 4279900442
-0.057730902 0.13259077 0.72500002 4279769624
-0.056462094 0.13259077 0.72500002 4279703576
-0.055193283 0.13259077 0.72500002 4279768856
-0.053775717 0.13222499 0.72300005 4279900181
-0.052437779 0.13204211 0.72200006 4280097555
-0.051032458 0.13167635 0.72000003 4280294166
-0.04970327 0.13149346 0.71900004 4280097305
-0.048242822 0.1309448 0.71600002 4279900187
-0.046989761 0.1309448 0.71600002 4279900701
-0.045736704 0.1309448 0.71600002 4279900446
-0.04435939 0.13057904 0.71400005 4279900192
-0.043049447 0.13039616 0.71300006 4279900192
-0.041801639 0.13039616 0.71300006 4279900192
-0.040553831 0.13039616 0.71300006 4279966241
-0.039306019 0.13039616 0.71300006 4280032034
-0.03805821 0.13039616 0.71300006 4280097573
-0.036810402 0.13039616 0.71300006 4280032809
-0.03556259 0.13039616 0.71300006 4279967784
-0.03421852 0.13003038 0.71100003 4280033832
-0.032835081 0.12948173 0.708 4280098856
-0.031596024 0.12948173 0.708 4280492072
-0.030356962 0.12948173 0.708 4280885030
-0.029076774 0.12929885 0.70700002 4280557348
-0.027760712 0.12893309 0.70500004 4280228896
-0.026526904 0.12893309 0.70500004 4280031772
-0.025293095 0.12893309 0.70500004 4279899930
-0.024059284 0.12893309 0.70500004 4279768857
-0.022890227 0.12929885 0.70700002 4279702806
-0.021591665 0.12893309 0.70500004 4279571476
-0.020357857 0.12893309 0.70500004 4279505943
-0.019178297 0.12929885 0.70700002 4279571739
-0.017940989 0.12929885 0.70700002 4279637789
-0.01670368 0.12929885 0.70700002 4279834655
-0.015488246 0.12948173 0.708 4280097571
-0.014249186 0.12948173 0.708 4280098343
-0.013010127 0.12948173 0.708 4280164649
-0.011754441 0.12929885 0.70700002 4280492843
-0.010532007 0.12948173 0.708 4280821292
-0.0092929471 0.12948173 0.708 4280887598
-0.0080538876 0.12948173 0.708 4280952620
-0.0068148281 0.12948173 0.708 4280887083
-0.0055757686 0.12948173 0.708 4280821032
-0.0043367087 0.12948173 0.708 4280492838
-0.0031063997 0.12984751 0.71000004 4280164384
-0.0018638398 0.12984751 0.71000004 4280032795
-0.00062215497 0.13003038 0.71100003 4279899673
0.00062215497 0.13003038 0.71100003 4279701783
0.001866465 0.13003038 0.71100003 4279569939
0.0031195255 0.13039616 0.71300006 4279373840
0.0043673352 0.13039616 0.71300006 4279176720
0.0056230212 0.13057904 0.71400005 4279111185
0.0068629556 0.13039616 0.71300006 4279110927
0.0081107663 0.13039616 0.71300006 4279111182
0.0093717016 0.13057904 0.71400005 4279110925
0.010651013 0.1309448 0.71600002 4279045389
0.011904073 0.1309448 0.71600002 4279045389
0.013157133 0.1309448 0.71600002 4279045389
0.014470572 0.13149346 0.71900004 4279045389
0.015794512 0.13204211 0.72200006 4279045390
0.017081698 0.13222499 0.72300005 4279110926
0.018423138 0.13277365 0.72600001 4279110926
0.01974795 0.13313942 0.72800004 4279111184
0.021050889 0.1333223 0.72900003 4279111442
0.022296075 0.13313942 0.72800004 4279176977
0.023602512 0.1333223 0.72900003 4279111696
0.024878323 0.1333223 0.72900003 4279112209
-0.06289278 0.1340442 0.72600001 4280097050
-0.06153734 0.13385957 0.72500002 4280097309
-0.060268525 0.13385957 0.72500002 4279965728
-0.058999717 0.13385957 0.72500002 4279899931
-0.057730902 0.13385957 0.72500002 4279768854
-0.056462094 0.13385957 0.72500002 4279637782
-0.055193283 0.13385957 0.72500002 4279703319
-0.053775717 0.13349031 0.72300005 4279834901
-0.052437779 0.13330567 0.72200006 4279966227
-0.051032458 0.1329364 0.72000003 4280097814
-0.049772397 0.1329364 0.72000003 4279966234
-0.04844496 0.13275178 0.71900004 4279900698
-0.046989761 0.13219787 0.71600002 4279900442
