# .PCD v0.7 - Point Cloud Data file format
VERSION 0.7
FIELDS x y z rgba
SIZE 4 4 4 4
TYPE F F F U
COUNT 1 1 1 1
WIDTH 1047
HEIGHT 1
VIEWPOINT 0 0 0 1 0 0 0
POINTS 1047
DATA ascii
-0.054051355 0.12984751 0.71000004 4280032042
-0.052808795 0.12984751 0.71000004 4280228907
-0.051566236 0.12984751 0.71000004 4280425261
-0.050323673 0.12984751 0.71000004 4280687404
-0.049081117 0.12984751 0.71000004 4280294188
-0.047838554 0.12984751 0.71000004 4279901483
-0.046464734 0.12948173 0.708 4280033067
-0.04522568 0.12948173 0.708 4280229165
-0.043986619 0.12948173 0.708 4280032815
-0.042747557 0.12948173 0.708 4279901485
-0.0415085 0.12948173 0.708 4280032556
-0.040269438 0.12948173 0.708 4280229163
-0.039030377 0.12948173 0.708 4280426026
-0.037791319 0.12948173 0.708 4280622122
-0.036655515 0.12984751 0.71000004 4280359722
-0.0353132 0.12948173 0.708 4280163113
-0.034026016 0.12929885 0.70700002 4280163113
-0.032788705 0.12929885 0.70700002 4280163113
-0.031551391 0.12929885 0.70700002 4280163114
-0.030356962 0.12948173 0.708 4280163114
-0.029117903 0.12948173 0.708 4280163115
-0.027839465 0.12929885 0.70700002 4280163114
-0.026602156 0.12929885 0.70700002 4280163114
-0.025364846 0.12929885 0.70700002 4280163370
-0.024127536 0.12929885 0.70700002 4280163627
-0.022890227 0.12929885 0.70700002 4280163115
-0.02156104 0.12875021 0.70400006 4280163115
-0.020357857 0.12893309 0.70500004 4280228908
-0.019124046 0.12893309 0.70500004 4280229165
-0.017940989 0.12929885 0.70700002 4280228651
-0.016656429 0.12893309 0.70500004 4280162858
-0.015466371 0.12929885 0.70700002 4280163114
-0.014229059 0.12929885 0.70700002 4280163115
-0.012991751 0.12929885 0.70700002 4280163115
-0.011754441 0.12929885 0.70700002 4280097323
-0.010517132 0.12929885 0.70700002 4280097322
-0.0092535708 0.12893309 0.70500004 4280031785
-0.0080197621 0.12893309 0.70500004 4280031528
-0.0068052029 0.12929885 0.70700002 4279965735
-0.0055915192 0.12984751 0.71000004 4279900194
-0.0043550846 0.13003038 0.71100003 4279900445
-0.0031195255 0.13039616 0.71300006 4279899935
-0.0018743403 0.13057904 0.71400005 4280030242
-0.00062653015 0.1309448 0.71600002 4280228650
0.00062653015 0.1309448 0.71600002 4280754738
0.0018795904 0.1309448 0.71600002 4281282106
0.003137026 0.13112769 0.71700001 4281809474
-0.085594878 0.13182861 0.71400005 4281017396
-0.084227182 0.13164397 0.71300006 4280754734
-0.082979374 0.13164397 0.71300006 4280492593
-0.081731565 0.13164397 0.71300006 4280558389
-0.08048375 0.13164397 0.71300006 4280624182
-0.079013683 0.1312747 0.71100003 4280624183
-0.077769369 0.1312747 0.71100003 4280690231
-0.076417431 0.13109007 0.71000004 4280689976
-0.075174868 0.13109007 0.71000004 4280756025
-0.073724046 0.13072079 0.708 4280755258
-0.072484985 0.13072079 0.708 4280819766
-0.071245924 0.13072079 0.708 4280819762
-0.07000687 0.13072079 0.708 4280884784
-0.068767808 0.13072079 0.708 4280753455
-0.067528747 0.13072079 0.708 4280621870
-0.066289686 0.13072079 0.708 4280293934
-0.065050632 0.13072079 0.708 4279966251
-0.06381157 0.13072079 0.708 4280097321
-0.062572517 0.13072079 0.708 4280294697
-0.061333455 0.13072079 0.708 4280097578
-0.060094394 0.13072079 0.708 4279967274
-0.058855332 0.13072079 0.708 4279901226
-0.057534892 0.13053615 0.70700002 4279836458
-0.056377213 0.13072079 0.708 4279836203
-0.055138156 0.13072079 0.708 4279901994
-0.053899094 0.13072079 0.708 4280032298
-0.052660033 0.13072079 0.708 4280163114
-0.051420975 0.13072079 0.708 4280294187
-0.050181914 0.13072079 0.708 4280425770
-0.048942856 0.13072079 0.708 4280228650
-0.047703795 0.13072079 0.708 4280031786
-0.046399109 0.13053615 0.70700002 4280097834
-0.045161799 0.13053615 0.70700002 4280228654
-0.043924492 0.13053615 0.70700002 4280032051
-0.042687181 0.13053615 0.70700002 4279835696
-0.041449871 0.13053615 0.70700002 4279900974
-0.04021256 0.13053615 0.70700002 4280032556
-0.038864996 0.13016689 0.70500004 4280228907
-0.037737943 0.13053615 0.70700002 4280425771
-0.036552258 0.13072079 0.708 4280228907
-0.035263322 0.13053615 0.70700002 4280032554
-0.033929758 0.13016689 0.70500004 4280097578
-0.032695949 0.13016689 0.70500004 4280228650
-0.03146214 0.13016689 0.70500004 4280162859
-0.030314086 0.13053615 0.70700002 4280163115
-0.029076774 0.13053615 0.70700002 4280228651
-0.027760712 0.13016689 0.70500004 4280359466
-0.026526904 0.13016689 0.70500004 4280293674
-0.025293095 0.13016689 0.70500004 4280294187
-0.024025157 0.12998226 0.70400006 4280032044
-0.022793099 0.12998226 0.70400006 4279835948
-0.02156104 0.12998226 0.70400006 4280032044
-0.020300101 0.12979762 0.70300001 4280294958
-0.019069795 0.12979762 0.70300001 4280294704
-0.017864862 0.12998226 0.70400006 4280360493
-0.016632801 0.12998226 0.70400006 4280294699
-0.015422619 0.13016689 0.70500004 4280294955
-0.014188808 0.13016689 0.70500004 4280294700
-0.012955 0.13016689 0.70500004 4280294956
-0.011721189 0.13016689 0.70500004 4280163372
-0.01048738 0.13016689 0.70500004 4280032042
-0.0092535708 0.13016689 0.70500004 4279966249
-0.0080197621 0.13016689 0.70500004 4279965992
-0.0068052029 0.13053615 0.70700002 4279900199
-0.0055757686 0.13072079 0.708 4279900451
-0.0043550846 0.1312747 0.71100003 4279834400
-0.0031195255 0.13164397 0.71300006 4279769122
-0.0018743403 0.13182861 0.71400005 4279965732
-0.00062653015 0.13219787 0.71600002 4280163882
0.00062478014 0.13182861 0.71400005 4280624432
0.0018743403 0.13182861 0.71400005 4281151034
0.003137026 0.1323825 0.71700001 4281677636
-0.085594878 0.13307817 0.71400005 4281017397
-0.084227182 0.13289179 0.71300006 4280689713
-0.082979374 0.13289179 0.71300006 4280427315
-0.081502303 0.13251901 0.71100003 4280493621
-0.080257989 0.13251901 0.71100003 4280558901
-0.07890255 0.13233262 0.71000004 4280624694
-0.07744123 0.13195986 0.708 4280690231
-0.076202169 0.13195986 0.708 4280756281
-0.074963108 0.13195986 0.708 4280887612
-0.073619924 0.13177347 0.70700002 4280888383
-0.072382607 0.13177347 0.70700002 4280953148
-0.070944041 0.1314007 0.70500004 4280953402
-0.069907986 0.13177347 0.70700002 4281017913
-0.068476424 0.1314007 0.70500004 4280950585
-0.067433372 0.13177347 0.70700002 4280884786
-0.066196062 0.13177347 0.70700002 4280751659
-0.064958751 0.13177347 0.70700002 4280686118
-0.063721441 0.13177347 0.70700002 4280554529
-0.062484138 0.13177347 0.70700002 4280424226
-0.061246827 0.13177347 0.70700002 4280293411
-0.060009517 0.13177347 0.70700002 4280162856
-0.058772203 0.13177347 0.70700002 4279965485
-0.057534892 0.13177347 0.70700002 4279835436
-0.056297582 0.13177347 0.70700002 4279901740
-0.055060275 0.13177347 0.70700002 4279966764
-0.053822968 0.13177347 0.70700002 4280032044
-0.052585658 0.13177347 0.70700002 4280162859
-0.051348347 0.13177347 0.70700002 4280162858
-0.050111037 0.13177347 0.70700002 4280228649
-0.048873726 0.13177347 0.70700002 4280163113
-0.04763642 0.13177347 0.70700002 4280163111
-0.046267856 0.1314007 0.70500004 4280163622
-0.045034047 0.1314007 0.70500004 4280228651
-0.043800235 0.1314007 0.70500004 4279966257
-0.04250605 0.13121432 0.70400006 4279769903
-0.041273989 0.13121432 0.70400006 4279835182
-0.040098809 0.1314007 0.70500004 4279900973
-0.038809873 0.13121432 0.70400006 4280032044
-0.037631188 0.1314007 0.70500004 4280228908
-0.036500633 0.13177347 0.70700002 4280097581
-0.03516357 0.1314007 0.70500004 4279966508
-0.033881631 0.13121432 0.70400006 4280097836
-0.032649577 0.13121432 0.70400006 4280293933
-0.031417515 0.13121432 0.70400006 4280228142
-0.030185455 0.13121432 0.70400006 4280228395
-0.028953394 0.13121432 0.70400006 4280360233
-0.027721336 0.13121432 0.70400006 4280556331
-0.026489278 0.13121432 0.70400006 4280489262
-0.025221338 0.13102792 0.70300001 4280425007
-0.02399103 0.13102792 0.70300001 4279965744
-0.022760721 0.13102792 0.70300001 4279573808
-0.02153041 0.13102792 0.70300001 4279966256
-0.02024235 0.13065517 0.70100003 4280426033
-0.019015541 0.13065517 0.70100003 4280425779
-0.017788731 0.13065517 0.70100003 4280491824
-0.016561922 0.13065517 0.70100003 4280426286
-0.015378865 0.13102792 0.70300001 4280426285
-0.014148557 0.13102792 0.70300001 4280426541
-0.012918247 0.13102792 0.70300001 4280426028
-0.011704564 0.13121432 0.70400006 4280163884
-0.010472505 0.13121432 0.70400006 4279966762
-0.0092535708 0.1314007 0.70500004 4279966248
-0.0080197621 0.1314007 0.70500004 4279965734
-0.0068052029 0.13177347 0.70700002 4279900196
-0.0055757686 0.13195986 0.708 4279899938
-0.0043489593 0.13233262 0.71000004 4279768352
-0.0031107748 0.13251901 0.71100003 4279637795
-0.0018743403 0.13307817 0.71400005 4279834406
-0.00062653015 0.13345093 0.71600002 4280098603
0.00062653015 0.13345093 0.71600002 4280559920
-0.085594878 0.13432772 0.71400005 4281082934
-0.084345318 0.13432772 0.71400005 4280820276
-0.082979374 0.1341396 0.71300006 4280623925
-0.081502303 0.13376331 0.71100003 4280624438
-0.080257989 0.13376331 0.71100003 4280690486
-0.07890255 0.13357519 0.71000004 4280689974
-0.077113092 0.13263452 0.70500004 4280755512
-0.076094538 0.13301077 0.70700002 4280821563
-0.074539594 0.13244639 0.70400006 4280953152
-0.073203392 0.13225824 0.70300001 4280953925
-0.072075471 0.13244639 0.70400006 4281020740
-0.070843413 0.13244639 0.70400006 4281085763
-0.069611356 0.13244639 0.70400006 4281217603
-0.068379298 0.13244639 0.70400006 4281609284
-0.067242615 0.13263452 0.70500004 4282001974
-0.066008806 0.13263452 0.70500004 4281542697
-0.06477499 0.13263452 0.70500004 4281144353
-0.063541189 0.13263452 0.70500004 4281082394
-0.062484138 0.13301077 0.70700002 4281013531
-0.061246827 0.13301077 0.70700002 4280883228
-0.060009517 0.13301077 0.70700002 4280753190
-0.05860595 0.13263452 0.70500004 4280096561
-0.057372138 0.13263452 0.70500004 4279507247
-0.056058701 0.13244639 0.70400006 4279507246
-0.054904521 0.13263452 0.70500004 4279573550
-0.053670712 0.13263452 0.70500004 4279637806
-0.052436899 0.13263452 0.70500004 4279704363
-0.051203091 0.13263452 0.70500004 4279768873
-0.049969282 0.13263452 0.70500004 4279835433
-0.048735473 0.13263452 0.70500004 4279703337
-0.047501665 0.13263452 0.70500004 4279638565
-0.046202227 0.13244639 0.70400006 4280031522
-0.04497017 0.13244639 0.70400006 4280425768
-0.043738108 0.13244639 0.70400006 4280293423
-0.042445667 0.13225824 0.70300001 4280163374
-0.04121536 0.13225824 0.70300001 4279834670
-0.03998505 0.13225824 0.70300001 4279508014
-0.038754743 0.13225824 0.70300001 4279638062
-0.037577812 0.13244639 0.70400006 4279835950
-0.036397379 0.13263452 0.70500004 4279637807
-0.035113692 0.13244639 0.70400006 4279507246
-0.033833504 0.13225824 0.70300001 4279703086
-0.032603193 0.13225824 0.70300001 4279900720
-0.031372886 0.13225824 0.70300001 4280358450
-0.030142574 0.13225824 0.70300001 4280817708
-0.028912267 0.13225824 0.70300001 4280819239
-0.027603205 0.13188198 0.70100003 4280885549
-0.026376396 0.13188198 0.70100003 4280820019
-0.025149586 0.13188198 0.70100003 4280754739
-0.023888651 0.13169385 0.70000005 4280558644
-0.022663591 0.13169385 0.70000005 4280362804
-0.021438533 0.13169385 0.70000005 4280624181
-0.020213475 0.13169385 0.70000005 4280886325
-0.018988414 0.13169385 0.70000005 4280754998
-0.017763356 0.13169385 0.70000005 4280689716
-0.016538298 0.13169385 0.70000005 4280688946
-0.015335115 0.13188198 0.70100003 4280689456
-0.014148557 0.13225824 0.70300001 4280557871
-0.012881495 0.13188198 0.70100003 4280491822
-0.011687938 0.13225824 0.70300001 4280294957
-0.010472505 0.13244639 0.70400006 4280163626
-0.0092535708 0.13263452 0.70500004 4280031784
-0.0080197621 0.13263452 0.70500004 4279965732
-0.0068052029 0.13301077 0.70700002 4279900449
-0.0055757686 0.13319892 0.708 4279900704
-0.0043550846 0.13376331 0.71100003 4279834656
-0.0031195255 0.1341396 0.71300006 4279769380
-0.0018795904 0.13470398 0.71600002 4280097320
-0.00062740518 0.13489212 0.71700001 4280426540
0.00062740518 0.13489212 0.71700001 4280756273
0.001890091 0.13545652 0.72000003 4281086007
-0.084345318 0.13557728 0.71400005 4280951092
-0.082979374 0.13538739 0.71300006 4280820788
-0.081502303 0.13500762 0.71100003 4280820789
-0.079919346 0.13443798 0.708 4280821045
-0.078569159 0.13424809 0.70700002 4280820790
-0.077113092 0.13386834 0.70500004 4280886583
-0.075771652 0.13367844 0.70400006 4280952377
-0.074433707 0.13348855 0.70300001 4281083709
-0.073203392 0.13348855 0.70300001 4281084737
-0.071973085 0.13348855 0.70300001 4281150786
-0.070742778 0.13348855 0.70300001 4281282628
-0.069512472 0.13348855 0.70300001 4281479494
-0.068087906 0.13310878 0.70100003 4282332745
-0.06705185 0.13348855 0.70300001 4283185734
-0.065821543 0.13348855 0.70300001 4282404420
-0.064683117 0.13367844 0.70400006 4281679687
-0.063451059 0.13367844 0.70400006 4281683018
-0.062218998 0.13367844 0.70400006 4281676612
-0.06098694 0.13367844 0.70400006 4281538879
-0.059754878 0.13367844 0.70400006 4281410623
-0.05852282 0.13367844 0.70400006 4280291904
-0.057209376 0.13348855 0.70300001 4279244602
-0.055979069 0.13348855 0.70300001 4279178036
-0.054748762 0.13348855 0.70300001 4279178543
-0.053518452 0.13348855 0.70300001 4279242283
-0.052288141 0.13348855 0.70300001 4279308840
-0.05105783 0.13348855 0.70300001 4279372838
-0.049827524 0.13348855 0.70300001 4279505444
-0.048597217 0.13348855 0.70300001 4279308323
-0.047366906 0.13348855 0.70300001 4279112481
-0.046005338 0.13310878 0.70100003 4279832863
-0.044778533 0.13310878 0.70100003 4280619556
-0.043551724 0.13310878 0.70100003 4280619049
-0.042264536 0.13291891 0.70000005 4280619305
-0.041098107 0.13310878 0.70100003 4279832361
-0.039871298 0.13310878 0.70100003 4279112233
-0.038754743 0.13348855 0.70300001 4279242282
-0.037524432 0.13348855 0.70300001 4279439660
-0.03634575 0.13367844 0.70400006 4279241518
-0.035063811 0.13348855 0.70300001 4279111984
-0.03373725 0.13310878 0.70100003 4279307314
-0.032510445 0.13310878 0.70100003 4279505978
-0.031239005 0.13291891 0.70000005 4280487490
-0.030013947 0.13291891 0.70000005 4281475136
-0.028788887 0.13291891 0.70000005 4281344830
-0.027563829 0.13291891 0.70000005 4281281859
-0.026338769 0.13291891 0.70000005 4281216840
-0.025041955 0.13253914 0.69800001 4281151041
-0.023820397 0.13253914 0.69800001 4281152315
-0.022598838 0.13253914 0.69800001 4281151033
-0.021377278 0.13253914 0.69800001 4281216824
-0.02015572 0.13253914 0.69800001 4281346103
-0.018934162 0.13253914 0.69800001 4281083702
-0.017687228 0.13234925 0.69700003 4280886324
-0.016491044 0.13253914 0.69800001 4280885811
-0.015313239 0.13291891 0.70000005 4280951345
-0.014088178 0.13291891 0.70000005 4280754735
-0.012881495 0.13310878 0.70100003 4280623150
-0.011654686 0.13310878 0.70100003 4280491565
-0.010457628 0.13348855 0.70300001 4280359979
-0.0092404447 0.13367844 0.70400006 4280162857
-0.008008386 0.13367844 0.70400006 4280031525
-0.0068052029 0.13424809 0.70700002 4279966241
-0.0055915192 0.13481775 0.71000004 4279965985
-0.0043550846 0.13500762 0.71100003 4279900449
-0.0031195255 0.13538739 0.71300006 4279900708
-0.0018795904 0.13595705 0.71600002 4280294184
-0.00062740518 0.13614693 0.71700001 4280754732
0.00062915531 0.1365267 0.71900004 4280887344
0.001890091 0.13671659 0.72000003 4281085237
-0.084345318 0.13682684 0.71400005 4281280821
-0.082979374 0.13663521 0.71300006 4281084212
-0.081502303 0.13625193 0.71100003 4280887092
-0.079919346 0.13567702 0.708 4280756021
-0.078569159 0.1354854 0.70700002 4280821046
-0.077113092 0.13510214 0.70500004 4280887094
-0.075664021 0.13471887 0.70300001 4280952375
-0.074433707 0.13471887 0.70300001 4281083450
-0.073203392 0.13471887 0.70300001 4281018686
-0.071973085 0.13471887 0.70300001 4281019457
-0.070742778 0.13471887 0.70300001 4281085253
-0.069512472 0.13471887 0.70300001 4281151306
-0.068087906 0.13433561 0.70100003 4281742159
-0.066861093 0.13433561 0.70100003 4282333783
-0.065634288 0.13433561 0.70100003 4281942367
-0.064591236 0.13471887 0.70300001 4281618796
-0.063360929 0.13471887 0.70300001 4281748602
-0.062130615 0.13471887 0.70300001 4281881710
-0.060900304 0.13471887 0.70300001 4282073955
-0.059669998 0.13471887 0.70300001 4282272857
-0.058273431 0.13433561 0.70100003 4281808719
-0.057046622 0.13433561 0.70100003 4281409348
-0.055740185 0.13414396 0.70000005 4281412410
-0.054359369 0.13376069 0.69800001 4281407793
-0.053366195 0.13433561 0.70100003 4281608232
-0.052139387 0.13433561 0.70100003 4281865510
-0.050912578 0.13433561 0.70100003 4281607460
-0.049685769 0.13433561 0.70100003 4281406240
-0.04845896 0.13433561 0.70100003 4281213981
-0.047164775 0.13414396 0.70000005 4281078301
-0.046005338 0.13433561 0.70100003 4281213469
-0.044714656 0.13414396 0.70000005 4281404960
-0.043365341 0.13376069 0.69800001 4281344035
-0.042143781 0.13376069 0.69800001 4281339171
-0.041039478 0.13414396 0.70000005 4281279268
-0.039871298 0.13433561 0.70100003 4281274661
-0.038644485 0.13433561 0.70100003 4281410598
-0.037417676 0.13433561 0.70100003 4281536553
-0.036190867 0.13433561 0.70100003 4281607469
-0.034964059 0.13433561 0.70100003 4281734706
-0.033689126 0.13414396 0.70000005 4281608247
-0.032464065 0.13414396 0.70000005 4281540165
-0.031149749 0.13376069 0.69800001 4282134611
-0.029885313 0.13356906 0.69700003 4282792788
-0.028665507 0.13356906 0.69700003 4282202710
-0.027485073 0.13376069 0.69800001 4281680729
-0.026263515 0.13376069 0.69800001 4281481053
-0.02500608 0.13356906 0.69700003 4281349456
-0.023786271 0.13356906 0.69700003 4281217347
-0.022566462 0.13356906 0.69700003 4281152063
-0.021346653 0.13356906 0.69700003 4281150268
-0.020126846 0.13356906 0.69700003 4281149241
-0.018907035 0.13356906 0.69700003 4281017655
-0.017687228 0.13356906 0.69700003 4280886326
-0.016491044 0.13376069 0.69800001 4280886069
-0.015269485 0.13376069 0.69800001 4280885810
-0.014088178 0.13414396 0.70000005 4280754736
-0.01286312 0.13414396 0.70000005 4280623406
-0.011638061 0.13414396 0.70000005 4280491821
-0.010427877 0.13433561 0.70100003 4280360491
-0.0092273187 0.13471887 0.70300001 4280163114
-0.0079970099 0.13471887 0.70300001 4280031782
-0.0068052029 0.1354854 0.70700002 4279966242
-0.0055757686 0.13567702 0.708 4279966242
-0.0043550846 0.13625193 0.71100003 4280032035
-0.0031195255 0.13663521 0.71300006 4280163878
-0.0018743403 0.13682684 0.71400005 4280492585
-0.00062740518 0.13740173 0.71700001 4280887596
-0.084345318 0.13807639 0.71400005 4281609787
-0.082979374 0.13788302 0.71300006 4281346617
-0.081502303 0.13749625 0.71100003 4281018680
-0.079919346 0.13691609 0.708 4280755511
-0.078680284 0.13691609 0.708 4280820790
-0.077113092 0.13633594 0.70500004 4280952374
-0.075664021 0.13594918 0.70300001 4281018423
-0.074433707 0.13594918 0.70300001 4281083706
-0.073203392 0.13594918 0.70300001 4281018686
-0.071973085 0.13594918 0.70300001 4280953663
-0.070541523 0.1355624 0.70100003 4280888640
-0.069314718 0.1355624 0.70100003 4280888644
-0.068087906 0.1355624 0.70100003 4281151049
-0.066861093 0.1355624 0.70100003 4281478990
-0.065540656 0.13536903 0.70000005 4281543763
-0.064315602 0.13536903 0.70000005 4281612633
-0.06309054 0.13536903 0.70000005 4281811039
-0.061865482 0.13536903 0.70000005 4282074206
-0.060640421 0.13536903 0.70000005 4282602846
-0.059415359 0.13536903 0.70000005 4283192159
-0.058024041 0.13498224 0.69800001 4283392352
-0.056802485 0.13498224 0.69800001 4283584606
-0.055580925 0.13498224 0.69800001 4283655261
-0.054281488 0.13478887 0.69700003 4283715929
-0.053061683 0.13478887 0.69700003 4284114262
-0.051841874 0.13478887 0.69700003 4284501846
-0.050622061 0.13478887 0.69700003 4283916886
-0.049473133 0.13498224 0.69800001 4283386963
-0.048251573 0.13498224 0.69800001 4283194704
-0.047030017 0.13498224 0.69800001 4283058767
-0.045808457 0.13498224 0.69800001 4282669391
-0.044586897 0.13498224 0.69800001 4282271312
-0.04330321 0.13478887 0.69700003 4282145106
-0.042083401 0.13478887 0.69700003 4282075474
-0.040863592 0.13478887 0.69700003 4282736467
-0.039700665 0.13498224 0.69800001 4283452755
-0.038479101 0.13498224 0.69800001 4283589203
-0.037257541 0.13498224 0.69800001 4283714900
-0.036035985 0.13498224 0.69800001 4284048214
-0.034914181 0.13536903 0.70000005 4284436567
-0.033592865 0.13498224 0.69800001 4284047704
-0.032324933 0.13478887 0.69700003 4283649625
-0.031015871 0.13440211 0.69500005 4283915354
-0.029799562 0.13440211 0.69500005 4284173142
-0.028583251 0.13440211 0.69500005 4283124050
-0.027366944 0.13440211 0.69500005 4282072146
-0.026225887 0.13478887 0.69700003 4281808978
-0.024934327 0.13440211 0.69500005 4281610312
-0.023718018 0.13440211 0.69500005 4281347135
-0.022566462 0.13478887 0.69700003 4281149756
-0.021346653 0.13478887 0.69700003 4281017657
-0.020126846 0.13478887 0.69700003 4280952120
-0.018907035 0.13478887 0.69700003 4280886839
-0.017687228 0.13478887 0.69700003 4280886582
-0.016491044 0.13498224 0.69800001 4280820789
-0.015269485 0.13498224 0.69800001 4280820530
-0.014088178 0.13536903 0.70000005 4280755247
-0.01286312 0.13536903 0.70000005 4280688941
-0.011654686 0.1355624 0.70100003 4280557612
-0.010427877 0.1355624 0.70100003 4280426026
-0.0092273187 0.13594918 0.70300001 4280229160
-0.008008386 0.13614257 0.70400006 4280097574
-0.0068052029 0.13672271 0.70700002 4280031780
-0.0055915192 0.13730286 0.71000004 4280032037
-0.0043550846 0.13749625 0.71100003 4280228902
-0.0031107748 0.13749625 0.71100003 4280426793
-0.0018717152 0.13788302 0.71300006 4280756012
-0.0006239051 0.13788302 0.71300006 4281084462
-0.082979374 0.13913083 0.71300006 4281740350
-0.081502303 0.13874055 0.71100003 4281411644
-0.079919346 0.13815515 0.708 4281082937
-0.078680284 0.13815515 0.708 4281017399
-0.077331848 0.13796002 0.70700002 4280952375
-0.075664021 0.13717948 0.70300001 4281018167
-0.074433707 0.13717948 0.70300001 4281084218
-0.073203392 0.13717948 0.70300001 4281018686
-0.071768336 0.13678922 0.70100003 4281018940
-0.070541523 0.13678922 0.70100003 4281019195
-0.069314718 0.13678922 0.70100003 4281019455
-0.067990772 0.13659407 0.70000005 4281150019
-0.066765718 0.13659407 0.70000005 4281346373
-0.065353401 0.13620381 0.69800001 4281281096
-0.064039961 0.13600866 0.69700003 4281215302
-0.062820151 0.13600866 0.69700003 4281412933
-0.061600342 0.13600866 0.69700003 4281608527
-0.060380537 0.13600866 0.69700003 4281940569
-0.059160724 0.13600866 0.69700003 4282272869
-0.057774656 0.13561842 0.69500005 4282403441
-0.056558348 0.13561842 0.69500005 4282605688
-0.055342045 0.13561842 0.69500005 4282667392
-0.054047849 0.13542327 0.69400001 4282803074
-0.052909426 0.13561842 0.69500005 4282995845
-0.051618736 0.13542327 0.69400001 4283262086
-0.050404176 0.13542327 0.69400001 4282995592
-0.049189616 0.13542327 0.69400001 4282802309
-0.04804419 0.13561842 0.69500005 4282602371
-0.046827883 0.13561842 0.69500005 4282474626
-0.045611572 0.13561842 0.69500005 4282274177
-0.044395264 0.13561842 0.69500005 4282145409
-0.043178957 0.13561842 0.69500005 4282012033
-0.041902266 0.13542327 0.69400001 4281950082
-0.04068771 0.13542327 0.69400001 4282274691
-0.039416272 0.13522813 0.69300002 4282672002
-0.03825859 0.13542327 0.69400001 4282733953
-0.037044033 0.13542327 0.69400001 4282868608
-0.035881106 0.13561842 0.69500005 4283061376
-0.034664795 0.13561842 0.69500005 4283262589
-0.03340036 0.13542327 0.69400001 4282995066
-0.0321858 0.13542327 0.69400001 4282736238
-0.030971242 0.13542327 0.69400001 4282796386
-0.029756682 0.13542327 0.69400001 4282928728
-0.028542124 0.13542327 0.69400001 4282071630
-0.027327565 0.13542327 0.69400001 4281216586
-0.026113007 0.13542327 0.69400001 4281216071
-0.024898449 0.13542327 0.69400001 4281280577
-0.023683889 0.13542327 0.69400001 4281214780
-0.022501709 0.13561842 0.69500005 4281148473
-0.021285402 0.13561842 0.69500005 4281017399
-0.020069093 0.13561842 0.69500005 4280951863
-0.018852783 0.13561842 0.69500005 4280886583
-0.017636474 0.13561842 0.69500005 4280886838
-0.016467419 0.13600866 0.69700003 4280886325
-0.015269485 0.13620381 0.69800001 4280951345
-0.014088178 0.13659407 0.70000005 4280820014
-0.01286312 0.13659407 0.70000005 4280688429
-0.011638061 0.13659407 0.70000005 4280491564
-0.010457628 0.13717948 0.70300001 4280360489
-0.0092404447 0.13737462 0.70400006 4280229159
-0.0080197621 0.13756976 0.70500004 4280163367
-0.0068052029 0.13796002 0.70700002 4280228903
-0.0055757686 0.13815515 0.708 4280359976
-0.0043550846 0.13874055 0.71100003 4280557609
-0.0031107748 0.13874055 0.71100003 4280821548
-0.0018717152 0.13913083 0.71300006 4281018927
-0.0006239051 0.13913083 0.71300006 4281216560
-0.084345318 0.14057553 0.71400005 4282463814
-0.082979374 0.14037865 0.71300006 4282134849
-0.081731565 0.14037865 0.71300006 4281805373
-0.079919346 0.13939421 0.708 4281476922
-0.078680284 0.13939421 0.708 4281213752
-0.077331848 0.13919732 0.70700002 4281017912
-0.075771652 0.13860668 0.70400006 4281084216
-0.074433707 0.13840979 0.70300001 4281149754
-0.073203392 0.13840979 0.70300001 4281150012
-0.071973085 0.13840979 0.70300001 4281149756
-0.070541523 0.13801602 0.70100003 4281149756
-0.069314718 0.13801602 0.70100003 4281149758
-0.067990772 0.13781914 0.70000005 4281149760
-0.066765718 0.13781914 0.70000005 4281215555
-0.065353401 0.13742536 0.69800001 4281019718
-0.064039961 0.13722849 0.69700003 4280887621
-0.062639892 0.13683473 0.69500005 4281017668
-0.061600342 0.13722849 0.69700003 4281214538
-0.060380537 0.13722849 0.69700003 4281279057
-0.059160724 0.13722849 0.69700003 4281412178
-0.057774656 0.13683473 0.69500005 4281539668
-0.056558348 0.13683473 0.69500005 4281675095
-0.055262409 0.13663782 0.69400001 4281736795
-0.054047849 0.13663782 0.69400001 4281872732
-0.052833293 0.13663782 0.69400001 4281935966
-0.051544357 0.13644095 0.69300002 4282070112
-0.050331548 0.13644095 0.69300002 4282132322
-0.048976988 0.13604718 0.69100004 4282201441
-0.04797506 0.13663782 0.69400001 4282068833
-0.046827883 0.13683473 0.69500005 4281940321
-0.045611572 0.13683473 0.69500005 4281938529
-0.044331383 0.13663782 0.69400001 4282005857
-0.043178957 0.13683473 0.69500005 4281938785
-0.041902266 0.13663782 0.69400001 4281874529
-0.040629081 0.13644095 0.69300002 4281871457
-0.03930252 0.13604718 0.69100004 4281939551
-0.038093209 0.13604718 0.69100004 4282002525
-0.037044033 0.13663782 0.69400001 4282070364
-0.035829473 0.13663782 0.69400001 4282066779
-0.034614913 0.13663782 0.69400001 4282135385
-0.03340036 0.13663782 0.69400001 4281934167
-0.0321858 0.13663782 0.69400001 4281806417
-0.030971242 0.13663782 0.69400001 4281736524
-0.029756682 0.13663782 0.69400001 4281740105
-0.028542124 0.13663782 0.69400001 4281082695
-0.027327565 0.13663782 0.69400001 4280428098
-0.026113007 0.13663782 0.69400001 4280689982
-0.024898449 0.13663782 0.69400001 4281017917
-0.023683889 0.13663782 0.69400001 4281083709
-0.022469331 0.13663782 0.69400001 4281148731
-0.021285402 0.13683473 0.69500005 4281017146
-0.020069093 0.13683473 0.69500005 4280951864
-0.018852783 0.13683473 0.69500005 4280886839
-0.017636474 0.13683473 0.69500005 4280886581
-0.016467419 0.13722849 0.69700003 4280951859
-0.015269485 0.13742536 0.69800001 4281082672
-0.014088178 0.13781914 0.70000005 4280885806
-0.012881495 0.13801602 0.70100003 4280753964
-0.011687938 0.13840979 0.70300001 4280491050
-0.010472505 0.13860668 0.70400006 4280294953
-0.0092404447 0.13860668 0.70400006 4280294952
-0.0080197621 0.13880357 0.70500004 4280294695
-0.0068052029 0.13919732 0.70700002 4280491815
-0.0055915192 0.13978799 0.71000004 4280688938
-0.0043550846 0.13998486 0.71100003 4280951341
-0.0031195255 0.14037865 0.71300006 4281280815
-0.0018717152 0.14037865 0.71300006 4281347890
-0.0006239051 0.14037865 0.71300006 4281413426
0.0019320932 0.14490698 0.73600006 4281675572
0.0032201551 0.14490698 0.73600006 4281807159
0.0045082173 0.14490698 0.73600006 4281939517
-0.084345318 0.14182508 0.71400005 4282859084
-0.083095752 0.14182508 0.71400005 4282726981
-0.081731565 0.14162645 0.71300006 4282331966
-0.080257989 0.14122917 0.71100003 4281936956
-0.07890255 0.14103055 0.71000004 4281607994
-0.07744123 0.14063327 0.708 4281346105
-0.076094538 0.14043464 0.70700002 4281215033
-0.074539594 0.13983874 0.70400006 4281149753
-0.073307537 0.13983874 0.70400006 4281149754
-0.071973085 0.13964011 0.70300001 4281150268
-0.070742778 0.13964011 0.70300001 4281084222
-0.069314718 0.13924284 0.70100003 4281018686
-0.067990772 0.1390442 0.70000005 4281018686
-0.066574953 0.13864692 0.69800001 4281084993
-0.06525977 0.1384483 0.69700003 4281084740
-0.064039961 0.1384483 0.69700003 4281084483
-0.062820151 0.1384483 0.69700003 4281084227
-0.061600342 0.1384483 0.69700003 4281150022
-0.060380537 0.1384483 0.69700003 4281214537
-0.059160724 0.1384483 0.69700003 4281278528
-0.057774656 0.13805103 0.69500005 4281344056
-0.056558348 0.13805103 0.69500005 4281473847
-0.055262409 0.13785239 0.69400001 4281540662
-0.053969976 0.13765375 0.69300002 4281605687
-0.052757163 0.13765375 0.69300002 4281606968
-0.051544357 0.13765375 0.69300002 4281605690
-0.050331548 0.13765375 0.69300002 4281672509
-0.048976988 0.13725649 0.69100004 4281737278
-0.047905933 0.13765375 0.69300002 4281477183
-0.046760499 0.13785239 0.69400001 4281280320
-0.045545939 0.13785239 0.69400001 4281412162
-0.044331383 0.13785239 0.69400001 4281608001
-0.043116827 0.13785239 0.69400001 4281477697
-0.041841891 0.13765375 0.69300002 4281345600
-0.040511828 0.13725649 0.69100004 4281476671
-0.03930252 0.13725649 0.69100004 4281605948
-0.038093209 0.13725649 0.69100004 4281607482
-0.036883902 0.13725649 0.69100004 4281605944
-0.035829473 0.13785239 0.69400001 4281606967
-0.034565039 0.13765375 0.69300002 4281606197
-0.03335223 0.13765375 0.69300002 4281409844
-0.032139421 0.13765375 0.69300002 4281277749
-0.030971242 0.13785239 0.69400001 4281409591
-0.029713806 0.13765375 0.69300002 4281540667
-0.028500997 0.13765375 0.69300002 4281148224
-0.027288189 0.13765375 0.69300002 4280755515
-0.026075382 0.13765375 0.69300002 4280886838
-0.024862571 0.13765375 0.69300002 4281018170
-0.023683889 0.13785239 0.69400001 4281083710
-0.022469331 0.13785239 0.69400001 4281214781
-0.021285402 0.13805103 0.69500005 4281083197
-0.020069093 0.13805103 0.69500005 4280952378
-0.018852783 0.13805103 0.69500005 4280886583
-0.017687228 0.1384483 0.69700003 4280886324
-0.016467419 0.1384483 0.69700003 4280886321
-0.015313239 0.1390442 0.70000005 4280886832
-0.014108305 0.13924284 0.70100003 4280689199
-0.012881495 0.13924284 0.70100003 4280557868
-0.011704564 0.13983874 0.70400006 4280557353
-0.01048738 0.14003737 0.70500004 4280557865
-0.0092535708 0.14003737 0.70500004 4280557609
-0.0080425125 0.14043464 0.70700002 4280557352
-0.0068148281 0.14063327 0.708 4280754983
-0.0055993944 0.14122917 0.71100003 4281018668
-0.0043673352 0.14162645 0.71300006 4281215538
-0.0031239004 0.14182508 0.71400005 4281478963
-0.0018743403 0.14182508 0.71400005 4281413941
0.0006396558 0.14520186 0.73100001 4281479218
0.0019320932 0.14619505 0.73600006 4281610292
0.0032201551 0.14619505 0.73600006 4281741878
0.0045082173 0.14619505 0.73600006 4281939517
0.0057962793 0.14619505 0.73600006 4282531908
-0.090808377 0.14748311 0.73600006 4283255892
-0.089277044 0.14708234 0.73400003 4283256148
-0.083095752 0.14307465 0.71400005 4283318861
-0.081731565 0.14287426 0.71300006 4282858568
-0.080257989 0.14247349 0.71100003 4282398020
-0.07890255 0.14227311 0.71000004 4282001217
-0.07744123 0.14187233 0.708 4281674303
-0.076202169 0.14187233 0.708 4281411902
-0.074645475 0.14127117 0.70500004 4281150013
-0.073411658 0.14127117 0.70500004 4281149756
-0.072177857 0.14127117 0.70500004 4281150013
-0.070944041 0.14127117 0.70500004 4281018686
-0.069512472 0.14087041 0.70300001 4280887614
-0.067990772 0.14026926 0.70000005 4280887615
-0.066574953 0.13986848 0.69800001 4280953153
-0.06525977 0.13966811 0.69700003 4281084484
-0.064039961 0.13966811 0.69700003 4281281347
-0.062820151 0.13966811 0.69700003 4281216067
-0.061600342 0.13966811 0.69700003 4281150277
-0.060380537 0.13966811 0.69700003 4281150792
-0.05899097 0.13926734 0.69500005 4281215300
-0.057774656 0.13926734 0.69500005 4281215808
-0.056558348 0.13926734 0.69500005 4281280319
-0.055262409 0.13906693 0.69400001 4281281599
-0.053969976 0.13886656 0.69300002 4281346111
-0.05260491 0.13846581 0.69100004 4281281343
-0.051395603 0.13846581 0.69100004 4281214783
-0.050186295 0.13846581 0.69100004 4281280831
-0.048976988 0.13846581 0.69100004 4281346112
-0.047767676 0.13846581 0.69100004 4280953666
-0.046558369 0.13846581 0.69100004 4280625730
-0.045480315 0.13886656 0.69300002 4280953667
-0.044139754 0.13846581 0.69100004 4281280833
-0.0430547 0.13886656 0.69300002 4281084480
-0.041841891 0.13886656 0.69300002 4280887616
-0.040511828 0.13846581 0.69100004 4281084481
-0.03930252 0.13846581 0.69100004 4281280575
-0.038093209 0.13846581 0.69100004 4281216061
-0.036990657 0.13886656 0.69300002 4281149244
-0.035829473 0.13906693 0.69400001 4281149499
-0.034614913 0.13906693 0.69400001 4281149242
-0.03335223 0.13886656 0.69300002 4280953402
-0.0321858 0.13906693 0.69400001 4280821307
-0.030971242 0.13906693 0.69400001 4281084221
-0.029756682 0.13906693 0.69400001 4281345599
-0.028500997 0.13886656 0.69300002 4281215041
-0.027288189 0.13886656 0.69300002 4281083965
-0.026075382 0.13886656 0.69300002 4281084474
-0.024862571 0.13886656 0.69300002 4281083708
-0.023683889 0.13906693 0.69400001 4281149246
-0.022469331 0.13906693 0.69400001 4281280061
-0.021285402 0.13926734 0.69500005 4281083709
-0.020069093 0.13926734 0.69500005 4280952121
-0.018852783 0.13926734 0.69500005 4280886582
-0.017687228 0.13966811 0.69700003 4280886068
-0.016491044 0.13986848 0.69800001 4280820531
-0.015313239 0.14026926 0.70000005 4280755249
-0.014108305 0.14046964 0.70100003 4280558384
-0.012881495 0.14046964 0.70100003 4280426798
-0.011704564 0.1410708 0.70400006 4280623149
-0.01048738 0.14127117 0.70500004 4280885804
-0.0092535708 0.14127117 0.70500004 4280820267
-0.0080197621 0.14127117 0.70500004 4280820780
-0.006785952 0.14127117 0.70500004 4281083438
-0.0055993944 0.14247349 0.71100003 4281412658
-0.0043673352 0.14287426 0.71300006 4281545014
-0.0018874659 0.14407657 0.71900004 4281546293
0.0006396558 0.14648117 0.73100001 4281479733
0.0019189675 0.14648117 0.73100001 4281545015
0.0032114047 0.14708234 0.73400003 4281741625
0.0044959662 0.14708234 0.73400003 4282005054
-0.09313073 0.1483669 0.73400003 4283846489
-0.091595918 0.14796263 0.73200005 4283584087
-0.09031485 0.14796263 0.73200005 4283321943
-0.089277044 0.1483669 0.73400003 4283387735
-0.087992489 0.1483669 0.73400003 4283454040
-0.083095752 0.1443242 0.71400005 4283584086
-0.081846192 0.1443242 0.71400005 4283320402
-0.08048375 0.14412208 0.71300006 4283057997
-0.079013683 0.1437178 0.71100003 4282596169
-0.07744123 0.14311139 0.708 4282200646
-0.076202169 0.14311139 0.708 4281872707
-0.074963108 0.14311139 0.708 4281609793
-0.073619924 0.14290926 0.70700002 4281412671
-0.072177857 0.14250499 0.70500004 4281281599
-0.070944041 0.14250499 0.70500004 4281215551
-0.069611356 0.14230286 0.70400006 4281150527
-0.068087906 0.14169645 0.70100003 4281084224
-0.066765718 0.14149432 0.70000005 4281084226
-0.065353401 0.14109005 0.69800001 4281150020
-0.064039961 0.1408879 0.69700003 4281281859
-0.062820151 0.1408879 0.69700003 4281150531
-0.061600342 0.1408879 0.69700003 4281019717
-0.060380537 0.1408879 0.69700003 4281084999
-0.059160724 0.1408879 0.69700003 4281216327
-0.057774656 0.14048365 0.69500005 4281281608
-0.056558348 0.14048365 0.69500005 4281347400
-0.055262409 0.1402815 0.69400001 4281347144
-0.054047849 0.1402815 0.69400001 4281347399
-0.052757163 0.14007938 0.69300002 4281215814
-0.051395603 0.13967511 0.69100004 4281150275
-0.050331548 0.14007938 0.69300002 4281150273
-0.048976988 0.13967511 0.69100004 4281216067
-0.047767676 0.13967511 0.69100004 4281019205
-0.046558369 0.13967511 0.69100004 4280888132
-0.045349061 0.13967511 0.69100004 4281084740
-0.044139754 0.13967511 0.69100004 4281281601
-0.0430547 0.14007938 0.69300002 4281084735
-0.041841891 0.14007938 0.69300002 4280953409
-0.040511828 0.13967511 0.69100004 4281019204
-0.03930252 0.13967511 0.69100004 4281150786
-0.038203463 0.14007938 0.69300002 4281150273
-0.036990657 0.14007938 0.69300002 4281150016
-0.035829473 0.1402815 0.69400001 4281149759
-0.034614913 0.1402815 0.69400001 4281215552
-0.03335223 0.14007938 0.69300002 4281084481
-0.0321858 0.1402815 0.69400001 4280953922
-0.030971242 0.1402815 0.69400001 4281084483
-0.029756682 0.1402815 0.69400001 4281215042
-0.028500997 0.14007938 0.69300002 4281149506
-0.027288189 0.14007938 0.69300002 4281084480
-0.026075382 0.14007938 0.69300002 4281084222
-0.024898449 0.1402815 0.69400001 4281083966
-0.023683889 0.1402815 0.69400001 4281149246
-0.022469331 0.1402815 0.69400001 4281214526
-0.021285402 0.14048365 0.69500005 4281083198
-0.020069093 0.14048365 0.69500005 4280951865
-0.018907035 0.1408879 0.69700003 4280885813
-0.017712602 0.14109005 0.69800001 4280885557
-0.016538298 0.14149432 0.70000005 4280886069
-0.015335115 0.14169645 0.70100003 4280887091
-0.014108305 0.14169645 0.70100003 4280820785
-0.012881495 0.14169645 0.70100003 4280755249
-0.011704564 0.14230286 0.70400006 4280952113
-0.010472505 0.14230286 0.70400006 4281149231
-0.0092535708 0.14250499 0.70500004 4281280558
-0.0080197621 0.14250499 0.70500004 4281478193
-0.0068052029 0.14290926 0.70700002 4281610037
-0.0056151459 0.14412208 0.71300006 4281807928
-0.0043673352 0.14412208 0.71300006 4281808699
-0.0031457767 0.14533487 0.71900004 4281809976
-0.0018874659 0.14533487 0.71900004 4281743670
-0.00063703069 0.14715409 0.72800004 4281677879
0.00063790573 0.14735621 0.72900003 4281611321
0.0019137171 0.14735621 0.72900003 4281545530
0.0032114047 0.1483669 0.73400003 4281872956
0.0044959662 0.1483669 0.73400003 4282266431
-0.0944153 0.14965145 0.73400003 4284174939
-0.092876978 0.1492437 0.73200005 4283846743
-0.091595918 0.1492437 0.73200005 4283650131
-0.09031485 0.1492437 0.73200005 4283453526
-0.088912152 0.14903979 0.73100001 4283519578
-0.087632842 0.14903979 0.73100001 4283586139
-0.083677657 0.14659318 0.71900004 4283914075
-0.082075454 0.14598154 0.71600002 4283781977
-0.080596633 0.14557377 0.71400005 4283715668
-0.079235949 0.14536989 0.71300006 4283256912
-0.077659994 0.14475822 0.71000004 4282795085
-0.076202169 0.14435045 0.708 4282465098
-0.074963108 0.14435045 0.708 4282135880
-0.073619924 0.14414656 0.70700002 4281806406
-0.072382607 0.14414656 0.70700002 4281478468
-0.070944041 0.14373881 0.70500004 4281411907
-0.069611356 0.14353491 0.70400006 4281411907
-0.068282165 0.14333102 0.70300001 4281280579
-0.066861093 0.14292327 0.70100003 4281215812
-0.065540656 0.14271937 0.70000005 4281215557
-0.064131834 0.1423116 0.69800001 4281281605
-0.062820151 0.14210771 0.69700003 4281084997
-0.061600342 0.14210771 0.69700003 4280953927
-0.060380537 0.14210771 0.69700003 4281085001
-0.059160724 0.14210771 0.69700003 4281216073
-0.057774656 0.14169995 0.69500005 4281281866
-0.056558348 0.14169995 0.69500005 4281412937
-0.055342045 0.14169995 0.69500005 4281412936
-0.054047849 0.14149606 0.69400001 4281412679
-0.052833293 0.14149606 0.69400001 4281216071
-0.051544357 0.14129218 0.69300002 4281084997
-0.050331548 0.14129218 0.69300002 4281085252
-0.048976988 0.14088441 0.69100004 4281150533
-0.047767676 0.14088441 0.69100004 4281150790
-0.046558369 0.14088441 0.69100004 4281150277
-0.045349061 0.14088441 0.69100004 4281215813
-0.044139754 0.14088441 0.69100004 4281281604
-0.0430547 0.14129218 0.69300002 4281151043
-0.041841891 0.14129218 0.69300002 4281084995
-0.040629081 0.14129218 0.69300002 4281085252
-0.039416272 0.14129218 0.69300002 4281084995
-0.03825859 0.14149606 0.69400001 4281150531
-0.037044033 0.14149606 0.69400001 4281215810
-0.035829473 0.14149606 0.69400001 4281215810
-0.034614913 0.14149606 0.69400001 4281281090
-0.03335223 0.14129218 0.69300002 4281215299
-0.032139421 0.14129218 0.69300002 4281150276
-0.030971242 0.14149606 0.69400001 4281150277
-0.029713806 0.14129218 0.69300002 4281149763
-0.028500997 0.14129218 0.69300002 4281149506
-0.027327565 0.14149606 0.69400001 4281149760
-0.026113007 0.14149606 0.69400001 4281084222
-0.024898449 0.14149606 0.69400001 4281084478
-0.023718018 0.14169995 0.69500005 4281150015
-0.022501709 0.14169995 0.69500005 4281214781
-0.021346653 0.14210771 0.69700003 4281083196
-0.020126846 0.14210771 0.69700003 4281017401
-0.018934162 0.1423116 0.69800001 4280950839
-0.017763356 0.14271937 0.70000005 4280951350
-0.016538298 0.14271937 0.70000005 4281016629
-0.015335115 0.14292327 0.70100003 4281083445
-0.014148557 0.14333102 0.70300001 4281083445
-0.012918247 0.14333102 0.70300001 4281150260
-0.011721189 0.14373881 0.70500004 4281281588
-0.01048738 0.14373881 0.70500004 4281412661
-0.009279822 0.14414656 0.70700002 4281740599
-0.0080538876 0.14435045 0.708 4282135609
-0.006834079 0.14475822 0.71000004 4282136379
-0.005646647 0.14618541 0.71700001 4282202684
-0.0044040876 0.14659318 0.71900004 4282072638
-0.0031457767 0.14659318 0.71900004 4282006332
-0.001890091 0.14679708 0.72000003 4281940794
-0.00063703069 0.14842816 0.72800004 4281873976
0.00063790573 0.14863203 0.72900003 4281676855
0.0019137171 0.14863203 0.72900003 4281545531
0.0031982788 0.14903979 0.73100001 4282069567
0.0044775908 0.14903979 0.73100001 4282596673
0.005756902 0.14903979 0.73100001 4283059779
-0.094158038 0.15052477 0.73200005 4284176476
-0.092876978 0.15052477 0.73200005 4283912789
-0.091595918 0.15052477 0.73200005 4283715919
-0.09031485 0.15052477 0.73200005 4283519574
-0.088912152 0.15031911 0.73100001 4283651165
-0.087632842 0.15031911 0.73100001 4283783774
-0.083794035 0.14805713 0.72000003 4284244832
-0.082075454 0.14723459 0.71600002 4284177504
-0.080596633 0.14682332 0.71400005 4284176987
-0.079347074 0.14682332 0.71400005 4283782743
-0.077769369 0.14620642 0.71100003 4283389012
-0.076417431 0.14600079 0.71000004 4283124050
-0.075174868 0.14600079 0.71000004 4282859088
-0.073619924 0.14538388 0.70700002 4282595918
-0.072382607 0.14538388 0.70700002 4282331723
-0.070944041 0.14497261 0.70500004 4282265928
-0.069611356 0.14476699 0.70400006 4282198343
-0.068282165 0.14456134 0.70300001 4281740615
-0.066861093 0.14415006 0.70100003 4281348423
-0.065540656 0.14394444 0.70000005 4281216583
-0.064315602 0.14394444 0.70000005 4281150791
-0.062820151 0.14332753 0.69700003 4281216071
-0.061600342 0.14332753 0.69700003 4281282121
-0.060380537 0.14332753 0.69700003 4281346892
-0.05899097 0.14291626 0.69500005 4281478476
-0.057774656 0.14291626 0.69500005 4281478220
-0.056558348 0.14291626 0.69500005 4281478474
-0.055342045 0.14291626 0.69500005 4281478216
-0.054047849 0.14271061 0.69400001 4281544008
-0.052833293 0.14271061 0.69400001 4281412680
-0.051544357 0.14250499 0.69300002 4281347656
-0.050331548 0.14250499 0.69300002 4281281608
-0.049118742 0.14250499 0.69300002 4281281863
-0.047905933 0.14250499 0.69300002 4281281607
-0.046558369 0.14209372 0.69100004 4281281606
-0.045480315 0.14250499 0.69300002 4281281350
-0.044267505 0.14250499 0.69300002 4281281606
-0.0430547 0.14250499 0.69300002 4281216071
-0.041841891 0.14250499 0.69300002 4281216326
-0.040629081 0.14250499 0.69300002 4281216069
-0.039416272 0.14250499 0.69300002 4281216325
-0.03825859 0.14271061 0.69400001 4281216069
-0.037044033 0.14271061 0.69400001 4281281605
-0.035881106 0.14291626 0.69500005 4281281349
-0.034614913 0.14271061 0.69400001 4281347141
-0.03335223 0.14250499 0.69300002 4281346885
-0.032139421 0.14250499 0.69300002 4281412678
-0.030926615 0.14250499 0.69300002 4281412679
-0.029756682 0.14271061 0.69400001 4281412932
-0.028542124 0.14271061 0.69400001 4281412418
-0.027327565 0.14271061 0.69400001 4281412928
-0.026113007 0.14271061 0.69400001 4281412670
-0.024898449 0.14271061 0.69400001 4281413439
-0.023718018 0.14291626 0.69500005 4281412417
-0.022501709 0.14291626 0.69500005 4281412157
-0.021346653 0.14332753 0.69700003 4281346362
-0.020126846 0.14332753 0.69700003 4281346362
-0.018907035 0.14332753 0.69700003 4281411642
-0.017763356 0.14394444 0.70000005 4281543223
-0.016538298 0.14394444 0.70000005 4281477685
-0.015335115 0.14415006 0.70100003 4281478455
-0.014148557 0.14456134 0.70300001 4281610042
-0.012918247 0.14456134 0.70300001 4281742905
-0.011721189 0.14497261 0.70500004 4281873208
-0.010517132 0.14538388 0.70700002 4282004028
-0.009279822 0.14538388 0.70700002 4282202689
-0.0081562679 0.14744021 0.71700001 4282401089
-0.0068918322 0.14723459 0.71600002 4282401090
-0.005646647 0.14744021 0.71700001 4282401601
-0.0044102124 0.14805713 0.72000003 4282203713
-0.0031501518 0.14805713 0.72000003 4282006080
-0.0018979665 0.14867404 0.72300005 4281874239
-0.00063528056 0.14929093 0.72600001 4281807674
0.00063703069 0.14970222 0.72800004 4281676597
0.0019137171 0.14990784 0.72900003 4281611067
0.0031895286 0.14990784 0.72900003 4282071106
0.0044775908 0.15031911 0.73100001 4282532163
0.005756902 0.15031911 0.73100001 4282993221
0.0070362138 0.15031911 0.73100001 4283453769
-0.094158038 0.15180582 0.73200005 4284242779
-0.092876978 0.15180582 0.73200005 4283978582
-0.091595918 0.15180582 0.73200005 4283781202
-0.090191461 0.15159841 0.73100001 4283650647
-0.088912152 0.15159841 0.73100001 4283782493
-0.087033436 0.1505615 0.72600001 4283980383
-0.085762881 0.1505615 0.72600001 4284243809
-0.083677657 0.14910981 0.71900004 4284572515
-0.082190081 0.14869504 0.71700001 4284638309
-0.080822393 0.14848764 0.71600002 4284703072
-0.079347074 0.1480729 0.71400005 4284373596
-0.077988133 0.1478655 0.71300006 4284045402
-0.076740324 0.1478655 0.71300006 4283783000
-0.075280756 0.14745073 0.71100003 4283584343
-0.073724046 0.14682858 0.708 4283386454
-0.072382607 0.14662118 0.70700002 4283254097
-0.070944041 0.14620642 0.70500004 4283122765
-0.069611356 0.14599903 0.70400006 4283055180
-0.068282165 0.14579165 0.70300001 4282266187
-0.06705185 0.14579165 0.70300001 4281480010
-0.065634288 0.14537688 0.70100003 4281282633
-0.064315602 0.1451695 0.70000005 4281085768
-0.062910281 0.14475472 0.69800001 4281347143
-0.061600342 0.14454734 0.69700003 4281674312
-0.060380537 0.14454734 0.69700003 4281739594
-0.059160724 0.14454734 0.69700003 4281805385
-0.057940915 0.14454734 0.69700003 4281674056
-0.056558348 0.14413257 0.69500005 4281609030
-0.055342045 0.14413257 0.69500005 4281674820
-0.054125734 0.14413257 0.69500005 4281740615
-0.052909426 0.14413257 0.69500005 4281674827
-0.051618736 0.14392518 0.69400001 4281674826
-0.050404176 0.14392518 0.69400001 4281543754
-0.049189616 0.14392518 0.69400001 4281412937
-0.047905933 0.1437178 0.69300002 4281412937
-0.046693124 0.1437178 0.69300002 4281412679
-0.045480315 0.1437178 0.69300002 4281346886
-0.044267505 0.1437178 0.69300002 4281347142
-0.0430547 0.1437178 0.69300002 4281347142
-0.041841891 0.1437178 0.69300002 4281347142
-0.040629081 0.1437178 0.69300002 4281347142
-0.03947315 0.14392518 0.69400001 4281412936
-0.03825859 0.14392518 0.69400001 4281412682
-0.037097413 0.14413257 0.69500005 4281412682
-0.035881106 0.14413257 0.69500005 4281412682
-0.034664795 0.14413257 0.69500005 4281478218
-0.03340036 0.14392518 0.69400001 4281543755
-0.0321858 0.14392518 0.69400001 4281675336
-0.030971242 0.14392518 0.69400001 4281675077
-0.029756682 0.14392518 0.69400001 4281675076
-0.028542124 0.14392518 0.69400001 4281674819
-0.027327565 0.14392518 0.69400001 4281674559
-0.026113007 0.14392518 0.69400001 4281740092
-0.024898449 0.14392518 0.69400001 4281805377
-0.023718018 0.14413257 0.69500005 4281740359
-0.022501709 0.14413257 0.69500005 4281675843
-0.021285402 0.14413257 0.69500005 4281675328
-0.020126846 0.14454734 0.69700003 4281675839
-0.018907035 0.14454734 0.69700003 4281871934
-0.017763356 0.1451695 0.70000005 4282135358
-0.016538298 0.1451695 0.70000005 4282004031
-0.015335115 0.14537688 0.70100003 4281939008
-0.014168683 0.14599903 0.70400006 4282136385
-0.012936624 0.14599903 0.70400006 4282334018
-0.011721189 0.14620642 0.70500004 4282464835
-0.010532007 0.14682858 0.708 4282597701
-0.0092929471 0.14682858 0.708 4282600519
