# .PCD v0.7 - Point Cloud Data file format
VERSION 0.7
FIELDS x y z rgba
SIZE 4 4 4 4
TYPE F F F U
COUNT 1 1 1 1
WIDTH 1050
HEIGHT 1
VIEWPOINT 0 0 0 1 0 0 0
POINTS 1050
DATA ascii
-0.14191872 0.11481866 0.81500006 4286325808
-0.14032 0.11467777 0.81400001 4286848300
-0.13889544 0.11467777 0.81400001 4287174440
-0.13713311 0.11439601 0.81200004 4287567910
-0.1350435 0.11383247 0.80800003 4287830308
-0.13329868 0.11355072 0.80600005 4288092195
-0.13156083 0.11326895 0.80400002 4288156962
-0.12983 0.1129872 0.80200005 4288288031
-0.12810618 0.11270542 0.80000001 4288353564
-0.12670609 0.11270542 0.80000001 4288484646
-0.12499277 0.11242367 0.79800004 4288747824
-0.12313155 0.11200102 0.79500002 4289008940
-0.12143397 0.11171926 0.79300004 4288876584
-0.11974339 0.11143748 0.79100001 4288744483
-0.11835907 0.11143748 0.79100001 4288809503
-0.11667899 0.11115573 0.78900003 4288874787
-0.11529817 0.11115573 0.78900003 4288940583
-0.11391737 0.11115573 0.78900003 4289007656
-0.11239391 0.11101484 0.78800005 4289010730
-0.11045132 0.11045132 0.78400004 4289075242
-0.10907926 0.11045132 0.78400004 4289138987
-0.10770719 0.11045132 0.78400004 4289269287
-0.10606386 0.11016956 0.78200006 4289466659
-0.1046953 0.11016956 0.78200006 4289733943
-0.10332673 0.11016956 0.78200006 4290002763
-0.10169739 0.10988779 0.78000003 4290335848
-0.10033233 0.10988779 0.78000003 4290866821
-0.098967269 0.10988779 0.78000003 4291390343
-0.097602196 0.10988779 0.78000003 4291061129
-0.096113756 0.10974691 0.77900004 4290732934
-0.094750442 0.10974691 0.77900004 4290601604
-0.093387127 0.10974691 0.77900004 4290536321
-0.092023812 0.10974691 0.77900004 4290536575
-0.09066049 0.10974691 0.77900004 4290601596
-0.089067914 0.10946514 0.77700001 4290667129
-0.087708101 0.10946514 0.77700001 4290794088
-0.08634828 0.10946514 0.77700001 4290334295
-0.084988467 0.10946514 0.77700001 4289935685
-0.083628647 0.10946514 0.77700001 4289532468
-0.082268834 0.10946514 0.77700001 4289208625
-0.080909014 0.10946514 0.77700001 4289272622
-0.079549208 0.10946514 0.77700001 4289403693
-0.07839065 0.10974691 0.77900004 4289271341
-0.077027336 0.10974691 0.77900004 4289207599
-0.075664021 0.10974691 0.77900004 4289208370
-0.074300706 0.10974691 0.77900004 4289209397
-0.072750129 0.10946514 0.77700001 4289144889
-0.071390308 0.10946514 0.77700001 4289079351
-0.070030496 0.10946514 0.77700001 4289143605
-0.068670675 0.10946514 0.77700001 4289210178
-0.06731087 0.10946514 0.77700001 4289081935
-0.065951049 0.10946514 0.77700001 4289016388
-0.064757496 0.10974691 0.77900004 4288881466
-0.063394181 0.10974691 0.77900004 4288748850
-0.062030867 0.10974691 0.77900004 4288612651
-0.060667545 0.10974691 0.77900004 4288481572
-0.05930423 0.10974691 0.77900004 4288350749
-0.057940915 0.10974691 0.77900004 4288285210
-0.056650233 0.10988779 0.78000003 4288154647
-0.055285163 0.10988779 0.78000003 4288023319
-0.053920098 0.10988779 0.78000003 4287957783
-0.052689791 0.11016956 0.78200006 4287957270
-0.051321223 0.11016956 0.78200006 4287826453
-0.050080411 0.11045132 0.78400004 4287760662
-0.048708346 0.11045132 0.78400004 4287629848
-0.04733628 0.11045132 0.78400004 4287498518
-0.046081468 0.11073308 0.78600001 4287367957
-0.044705901 0.11073308 0.78600001 4287301653
-0.043330338 0.11073308 0.78600001 4287170581
-0.04206153 0.11101484 0.78800005 4287039251
-0.040682461 0.11101484 0.78800005 4286908177
-0.03935327 0.11115573 0.78900003 4286842639
-0.037972454 0.11115573 0.78900003 4286646286
-0.036591638 0.11115573 0.78900003 4286514958
-0.035210822 0.11115573 0.78900003 4286384142
-0.033915754 0.11143748 0.79100001 4286252561
-0.032695949 0.11200102 0.79500002 4286121236
-0.031383388 0.11228278 0.79700005 4286055954
-0.029988572 0.11228278 0.79700005 4285859600
-0.028629629 0.11242367 0.79800004 4285662993
-0.027301315 0.11270542 0.80000001 4285466898
-0.026030753 0.11326895 0.80400002 4285270807
-0.02468494 0.11355072 0.80600005 4285009181
-0.023332125 0.11383247 0.80800003 4284747030
-0.02197231 0.11411425 0.81000006 4284616208
-0.02055474 0.11411425 0.81000006 4284485398
-0.019184425 0.11439601 0.81200004 4284289308
-0.017828984 0.11481866 0.81500006 4284094504
-0.016483169 0.11538219 0.81900007 4283899956
-0.14334504 0.11624499 0.81500006 4285936181
-0.14191872 0.11624499 0.81500006 4286391599
-0.14032 0.11610235 0.81400001 4286914091
-0.13889544 0.11610235 0.81400001 4287241255
-0.13713311 0.11581708 0.81200004 4287568932
-0.1350435 0.11524656 0.80800003 4287765026
-0.13329868 0.11496129 0.80600005 4287961634
-0.13123357 0.11439077 0.80200005 4288091683
-0.12950623 0.1141055 0.80000001 4288288289
-0.12810618 0.1141055 0.80000001 4288353823
-0.12638934 0.11382023 0.79800004 4288485674
-0.12483614 0.11367761 0.79700005 4288616246
-0.12282179 0.11310707 0.79300004 4288812846
-0.12143397 0.11310707 0.79300004 4288679462
-0.11974339 0.1128218 0.79100001 4288612642
-0.11835907 0.1128218 0.79100001 4288678174
-0.11667899 0.11253655 0.78900003 4288809250
-0.11515205 0.11239391 0.78800005 4288809511
-0.11377298 0.11239391 0.78800005 4288876070
-0.11210864 0.11210864 0.78600001 4288943653
-0.11045132 0.11182339 0.78400004 4289010730
-0.10907926 0.11182339 0.78400004 4289073199
-0.10743243 0.11153813 0.78200006 4289136931
-0.10606386 0.11153813 0.78200006 4289536535
-0.1046953 0.11153813 0.78200006 4290001221
-0.10306247 0.11125286 0.78000003 4290137971
-0.10169739 0.11125286 0.78000003 4290338940
-0.10033233 0.11125286 0.78000003 4290668421
-0.098967269 0.11125286 0.78000003 4291063436
-0.097477071 0.11111023 0.77900004 4290931092
-0.096113756 0.11111023 0.77900004 4290799245
-0.094750442 0.11111023 0.77900004 4290668166
-0.093387127 0.11111023 0.77900004 4290602885
-0.091787547 0.11082496 0.77700001 4290668420
-0.090427727 0.11082496 0.77700001 4290734727
-0.089067914 0.11082496 0.77700001 4290865547
-0.087708101 0.11082496 0.77700001 4290996359
-0.08634828 0.11082496 0.77700001 4290865539
-0.084988467 0.11082496 0.77700001 4290736222
-0.083628647 0.11082496 0.77700001 4290530618
-0.082268834 0.11082496 0.77700001 4290328884
-0.080909014 0.11082496 0.77700001 4289868334
-0.079549208 0.11082496 0.77700001 4289469999
-0.078189388 0.11082496 0.77700001 4289403441
-0.076829575 0.11082496 0.77700001 4289340469
-0.075469762 0.11082496 0.77700001 4289406266
-0.074109942 0.11082496 0.77700001 4289473083
-0.072750129 0.11082496 0.77700001 4289476412
-0.071390308 0.11082496 0.77700001 4289475384
-0.070030496 0.11082496 0.77700001 4289343796
-0.068670675 0.11082496 0.77700001 4289273406
-0.06731087 0.11082496 0.77700001 4289143112
-0.065951049 0.11082496 0.77700001 4289014851
-0.064591236 0.11082496 0.77700001 4289344062
-0.063394181 0.11111023 0.77900004 4289739318
-0.062030867 0.11111023 0.77900004 4289077807
-0.060667545 0.11111023 0.77900004 4288416550
-0.05930423 0.11111023 0.77900004 4288350494
-0.057940915 0.11111023 0.77900004 4288285468
-0.056577604 0.11111023 0.77900004 4288088858
-0.055285163 0.11125286 0.78000003 4287958039
-0.053920098 0.11125286 0.78000003 4287891989
-0.052555032 0.11125286 0.78000003 4287891733
-0.051321223 0.11153813 0.78200006 4287760917
-0.050080411 0.11182339 0.78400004 4287695895
-0.048708346 0.11182339 0.78400004 4287564569
-0.04733628 0.11182339 0.78400004 4287433239
-0.045964215 0.11182339 0.78400004 4287302165
-0.044705901 0.11210864 0.78600001 4287236628
-0.043330338 0.11210864 0.78600001 4287105043
-0.041954767 0.11210864 0.78600001 4286973458
-0.040682461 0.11239391 0.78800005 4286907921
-0.039303396 0.11239391 0.78800005 4286842639
-0.037972454 0.11253655 0.78900003 4286646030
-0.036591638 0.11253655 0.78900003 4286515214
-0.035210822 0.11253655 0.78900003 4286383887
-0.033915754 0.1128218 0.79100001 4286252816
-0.032695949 0.11339234 0.79500002 4286121489
-0.031304631 0.11339234 0.79500002 4285990159
-0.029988572 0.11367761 0.79700005 4285793806
-0.028629629 0.11382023 0.79800004 4285597455
-0.027301315 0.1141055 0.80000001 4285400849
-0.025966002 0.11439077 0.80200005 4285205011
-0.02468494 0.11496129 0.80600005 4284942869
-0.023274371 0.11496129 0.80600005 4284746260
-0.021918055 0.11524656 0.80800003 4284615956
-0.020503988 0.11524656 0.80800003 4284485655
-0.019137172 0.11553182 0.81000006 4284224026
-0.017807107 0.11610235 0.81400001 4284029221
-0.016563673 0.11738603 0.82300001 4283834929
-0.015160105 0.1176713 0.82500005 4283707959
-0.14191872 0.1176713 0.81500006 4286587695
-0.14032 0.1175269 0.81400001 4287045676
-0.13855417 0.11723815 0.81200004 4287308330
-0.13645756 0.11666062 0.80800003 4287634984
-0.13470924 0.11637186 0.80600005 4287765030
-0.1329679 0.11608309 0.80400002 4287895332
-0.13123357 0.11579432 0.80200005 4288091170
-0.12950623 0.11550556 0.80000001 4288287778
-0.12778591 0.11521681 0.79800004 4288353571
-0.12638934 0.11521681 0.79800004 4288484904
-0.12483614 0.11507241 0.79700005 4288549933
-0.12282179 0.11449488 0.79300004 4288614439
-0.12143397 0.11449488 0.79300004 4288547362
-0.11974339 0.11420612 0.79100001 4288547104
-0.11805981 0.11391737 0.78900003 4288612638
-0.11667899 0.11391737 0.78900003 4288743712
-0.11515205 0.11377298 0.78800005 4288744227
-0.11377298 0.11377298 0.78800005 4288810532
-0.11210864 0.11348421 0.78600001 4288877349
-0.11045132 0.11319545 0.78400004 4288942629
-0.108801 0.11290669 0.78200006 4289006886
-0.10715766 0.11261793 0.78000003 4289076278
-0.10579259 0.11261793 0.78000003 4289673286
-0.1046953 0.11290669 0.78200006 4290269533
-0.10306247 0.11261793 0.78000003 4290340468
-0.10169739 0.11261793 0.78000003 4290404473
-0.10020371 0.11247354 0.77900004 4290601854
-0.098840393 0.11247354 0.77900004 4290799492
-0.097477071 0.11247354 0.77900004 4290800522
-0.096113756 0.11247354 0.77900004 4290865288
-0.094750442 0.11247354 0.77900004 4290800262
-0.093387127 0.11247354 0.77900004 4290734214
-0.091787547 0.11218478 0.77700001 4290800006
-0.090427727 0.11218478 0.77700001 4290931850
-0.089067914 0.11218478 0.77700001 4291064718
-0.087708101 0.11218478 0.77700001 4291196045
-0.08634828 0.11218478 0.77700001 4291395468
-0.084988467 0.11218478 0.77700001 4291590524
-0.083628647 0.11218478 0.77700001 4291525228
-0.082268834 0.11218478 0.77700001 4291519075
-0.080909014 0.11218478 0.77700001 4290533978
-0.079549208 0.11218478 0.77700001 4289542470
-0.078189388 0.11218478 0.77700001 4289467186
-0.076829575 0.11218478 0.77700001 4289469497
-0.075469762 0.11218478 0.77700001 4289603648
-0.074109942 0.11218478 0.77700001 4289805390
-0.072750129 0.11218478 0.77700001 4289813340
-0.071206555 0.11189602 0.77500004 4289876313
-0.069850244 0.11189602 0.77500004 4289614423
-0.068493925 0.11189602 0.77500004 4289344586
-0.06731087 0.11218478 0.77700001 4289203006
-0.065951049 0.11218478 0.77700001 4289078335
-0.064591236 0.11218478 0.77700001 4289872193
-0.063231416 0.11218478 0.77700001 4290724410
-0.061871603 0.11218478 0.77700001 4289543219
-0.060667545 0.11247354 0.77900004 4288421164
-0.05930423 0.11247354 0.77900004 4288349733
-0.057940915 0.11247354 0.77900004 4288350495
-0.056577604 0.11247354 0.77900004 4288154650
-0.055214286 0.11247354 0.77900004 4287957528
-0.053920098 0.11261793 0.78000003 4287891734
-0.052555032 0.11261793 0.78000003 4287826453
-0.051321223 0.11290669 0.78200006 4287761428
-0.04995266 0.11290669 0.78200006 4287695892
-0.048708346 0.11319545 0.78400004 4287564821
-0.04733628 0.11319545 0.78400004 4287433236
-0.045964215 0.11319545 0.78400004 4287302163
-0.04459215 0.11319545 0.78400004 4287170835
-0.043330338 0.11348421 0.78600001 4287039764
-0.041954767 0.11348421 0.78600001 4286973713
-0.040579204 0.11348421 0.78600001 4286908431
-0.039303396 0.11377298 0.78800005 4286842382
-0.037972454 0.11391737 0.78900003 4286646030
-0.036545262 0.11377298 0.78800005 4286514959
-0.035210822 0.11391737 0.78900003 4286384144
-0.033915754 0.11420612 0.79100001 4286252815
-0.032695949 0.11478365 0.79500002 4286056463
-0.031304631 0.11478365 0.79500002 4285924880
-0.029988572 0.11507241 0.79700005 4285728529
-0.028629629 0.11521681 0.79800004 4285531665
-0.027301315 0.11550556 0.80000001 4285335057
-0.025966002 0.11579432 0.80200005 4285204496
-0.024623686 0.11608309 0.80400002 4284942607
-0.023274371 0.11637186 0.80600005 4284746257
-0.021918055 0.11666062 0.80800003 4284615700
-0.020503988 0.11666062 0.80800003 4284485397
-0.019184425 0.11723815 0.81200004 4284223767
-0.017828984 0.1176713 0.81500006 4283963171
-0.016523421 0.11853759 0.82100004 4283833903
-0.015123353 0.11882634 0.82300001 4283706421
-0.013716286 0.11911512 0.82500005 4283644220
-0.13997523 0.11865921 0.81200004 4287045423
-0.13821292 0.11836695 0.81000006 4287308078
-0.13645756 0.11807469 0.80800003 4287635500
-0.13470924 0.11778242 0.80600005 4287764522
-0.1329679 0.11749016 0.80400002 4287894821
-0.13123357 0.11719789 0.80200005 4288090913
-0.12950623 0.11690563 0.80000001 4288287524
-0.12778591 0.11661337 0.79800004 4288353831
-0.12638934 0.11661337 0.79800004 4288420390
-0.12420961 0.1158827 0.79300004 4288483877
-0.12251203 0.11559044 0.79100001 4288613409
-0.12112771 0.11559044 0.79100001 4288547614
-0.11944063 0.11529817 0.78900003 4288547870
-0.11791018 0.11515205 0.78800005 4288612895
-0.11653112 0.11515205 0.78800005 4288678431
-0.11485978 0.11485978 0.78600001 4288678687
-0.11348421 0.11485978 0.78600001 4288745250
-0.11210864 0.11485978 0.78600001 4288876070
-0.11016956 0.11427525 0.78200006 4289007137
-0.10852273 0.11398299 0.78000003 4289140765
-0.10715766 0.11398299 0.78000003 4289275209
-0.10579259 0.11398299 0.78000003 4290138229
-0.10442753 0.11398299 0.78000003 4291063157
-0.10306247 0.11398299 0.78000003 4290535798
-0.10169739 0.11398299 0.78000003 4290009974
-0.10020371 0.11383685 0.77900004 4290205047
-0.098840393 0.11383685 0.77900004 4290404732
-0.097477071 0.11383685 0.77900004 4290535809
-0.096113756 0.11383685 0.77900004 4290668163
-0.094750442 0.11383685 0.77900004 4290535814
-0.093387127 0.11383685 0.77900004 4290406535
-0.091787547 0.11354459 0.77700001 4290668680
-0.090427727 0.11354459 0.77700001 4290932109
-0.089067914 0.11354459 0.77700001 4291066002
-0.087708101 0.11354459 0.77700001 4291262355
-0.08634828 0.11354459 0.77700001 4291262613
-0.084988467 0.11354459 0.77700001 4291329946
-0.083413392 0.11325233 0.77500004 4291263647
-0.082057074 0.11325233 0.77500004 4291263891
-0.080909014 0.11354459 0.77700001 4290603911
-0.079344444 0.11325233 0.77500004 4290009949
-0.077988133 0.11325233 0.77500004 4289732915
-0.076829575 0.11354459 0.77700001 4289467708
-0.075469762 0.11354459 0.77700001 4289670982
-0.074109942 0.11354459 0.77700001 4289873249
-0.072750129 0.11354459 0.77700001 4290405501
-0.071206555 0.11325233 0.77500004 4290930556
-0.069850244 0.11325233 0.77500004 4290601083
-0.068493925 0.11325233 0.77500004 4290270808
-0.067137614 0.11325233 0.77500004 4289672501
-0.065781295 0.11325233 0.77500004 4289075772
-0.064591236 0.11354459 0.77700001 4289342276
-0.063231416 0.11354459 0.77700001 4289679934
-0.061871603 0.11354459 0.77700001 4289082168
-0.060511786 0.11354459 0.77700001 4288555314
-0.05930423 0.11383685 0.77900004 4288418348
-0.057940915 0.11383685 0.77900004 4288350499
-0.056577604 0.11383685 0.77900004 4288153882
-0.055214286 0.11383685 0.77900004 4288023064
-0.053920098 0.11398299 0.78000003 4287891991
-0.052555032 0.11398299 0.78000003 4287826965
-0.051321223 0.11427525 0.78200006 4287695891
-0.050080411 0.11456752 0.78400004 4287630354
-0.048708346 0.11456752 0.78400004 4287499026
-0.04733628 0.11456752 0.78400004 4287433234
-0.045964215 0.11456752 0.78400004 4287301906
-0.04459215 0.11456752 0.78400004 4287236115
-0.043330338 0.11485978 0.78600001 4287104789
-0.041954767 0.11485978 0.78600001 4287039249
-0.040579204 0.11485978 0.78600001 4286907918
-0.03920364 0.11485978 0.78600001 4286776590
-0.037924327 0.11515205 0.78800005 4286645774
-0.036545262 0.11515205 0.78800005 4286515215
-0.035210822 0.11529817 0.78900003 4286318353
-0.033915754 0.11559044 0.79100001 4286187279
-0.032613698 0.1158827 0.79300004 4286056205
-0.031225879 0.1158827 0.79300004 4285990672
-0.029913316 0.11617497 0.79500002 4285728276
-0.028629629 0.11661337 0.79800004 4285531922
-0.027233062 0.11661337 0.79800004 4285335313
-0.025966002 0.11719789 0.80200005 4285139213
-0.024623686 0.11749016 0.80400002 4284942601
-0.023274371 0.11778242 0.80600005 4284746254
-0.021918055 0.11807469 0.80800003 4284615700
-0.020503988 0.11807469 0.80800003 4284485652
-0.019137172 0.11836695 0.81000006 4284224021
-0.017828984 0.11909761 0.81500006 4283963425
-0.016442917 0.11938988 0.81700003 4283833902
-0.015013099 0.11938988 0.81700003 4283705908
-0.013749537 0.1208512 0.82700002 4283643451
-0.14139631 0.12008029 0.81200004 4286587440
-0.13963048 0.11978453 0.81000006 4287045682
-0.13787165 0.11948875 0.80800003 4287375156
-0.13611981 0.11919299 0.80600005 4287700779
-0.13437498 0.11889723 0.80400002 4287828770
-0.1329679 0.11889723 0.80400002 4287959587
-0.13123357 0.11860146 0.80200005 4288090660
-0.12918247 0.11800993 0.79800004 4288287529
-0.12778591 0.11800993 0.79800004 4288288815
-0.12623096 0.11786205 0.79700005 4288353576
-0.12420961 0.11727053 0.79300004 4288483617
-0.12251203 0.11697476 0.79100001 4288613406
-0.12082145 0.11667899 0.78900003 4288612892
-0.11928924 0.11653112 0.78800005 4288613149
-0.11791018 0.11653112 0.78800005 4288613150
-0.11653112 0.11653112 0.78800005 4288678174
-0.11485978 0.11623535 0.78600001 4288678430
-0.11348421 0.11623535 0.78600001 4288744226
-0.11182339 0.11593958 0.78400004 4288940327
-0.11016956 0.11564382 0.78200006 4289138723
-0.10852273 0.11534806 0.78000003 4289274400
-0.10715766 0.11534806 0.78000003 4289478473
-0.10565697 0.11520017 0.77900004 4290672242
-0.10442753 0.11534806 0.78000003 4291914612
-0.10293033 0.11520017 0.77900004 4290795383
-0.10156702 0.11520017 0.77900004 4289678963
-0.10020371 0.11520017 0.77900004 4289869680
-0.098840393 0.11520017 0.77900004 4290073197
-0.097477071 0.11520017 0.77900004 4290270315
-0.096113756 0.11520017 0.77900004 4290467182
-0.094507173 0.11490441 0.77700001 4290268785
-0.09314736 0.11490441 0.77700001 4290075515
-0.091787547 0.11490441 0.77700001 4290536325
-0.090427727 0.11490441 0.77700001 4290999442
-0.089067914 0.11490441 0.77700001 4291201440
-0.087708101 0.11490441 0.77700001 4291395225
-0.08634828 0.11490441 0.77700001 4291259283
-0.084988467 0.11490441 0.77700001 4291130517
-0.083413392 0.11460865 0.77500004 4291066775
-0.082057074 0.11460865 0.77500004 4291067283
-0.080700763 0.11460865 0.77500004 4290805136
-0.079344444 0.11460865 0.77500004 4290530662
-0.077988133 0.11460865 0.77500004 4289986876
-0.076631814 0.11460865 0.77500004 4289536579
-0.075275496 0.11460865 0.77500004 4289739851
-0.074109942 0.11490441 0.77700001 4289945713
-0.072750129 0.11490441 0.77700001 4290940055
-0.071206555 0.11460865 0.77500004 4291983248
-0.069850244 0.11460865 0.77500004 4291589257
-0.068493925 0.11460865 0.77500004 4291192438
-0.067137614 0.11460865 0.77500004 4290140771
-0.065781295 0.11460865 0.77500004 4289149002
-0.064424977 0.11460865 0.77500004 4288872753
-0.063231416 0.11490441 0.77700001 4288619314
-0.061871603 0.11490441 0.77700001 4288682291
-0.060511786 0.11490441 0.77700001 4288748334
-0.05930423 0.11520017 0.77900004 4288548905
-0.057940915 0.11520017 0.77900004 4288351009
-0.056577604 0.11520017 0.77900004 4288219162
-0.055214286 0.11520017 0.77900004 4288088601
-0.053920098 0.11534806 0.78000003 4287957528
-0.052555032 0.11534806 0.78000003 4287826709
-0.051321223 0.11564382 0.78200006 4287695891
-0.04995266 0.11564382 0.78200006 4287630354
-0.048584092 0.11564382 0.78200006 4287564818
-0.047215525 0.11564382 0.78200006 4287498513
-0.045964215 0.11593958 0.78400004 4287367441
-0.04459215 0.11593958 0.78400004 4287301395
-0.04322008 0.11593958 0.78400004 4287170325
-0.041954767 0.11623535 0.78600001 4287104530
-0.040579204 0.11623535 0.78600001 4286907663
-0.03920364 0.11623535 0.78600001 4286776846
-0.037972454 0.11667899 0.78900003 4286646030
-0.036545262 0.11653112 0.78800005 4286514959
-0.035210822 0.11667899 0.78900003 4286318353
-0.033915754 0.11697476 0.79100001 4286187022
-0.032613698 0.11727053 0.79300004 4286121484
-0.031225879 0.11727053 0.79300004 4286055694
-0.029838063 0.11727053 0.79300004 4285793553
-0.028593753 0.11786205 0.79700005 4285531664
-0.027233062 0.11800993 0.79800004 4285335311
-0.025901247 0.11830569 0.80000001 4285138957
-0.024623686 0.11889723 0.80400002 4284942860
-0.023274371 0.11919299 0.80600005 4284811792
-0.021918055 0.11948875 0.80800003 4284615700
-0.020503988 0.11948875 0.80800003 4284485141
-0.019137172 0.11978453 0.81000006 4284223511
-0.017807107 0.12037604 0.81400001 4283962657
-0.016402666 0.12052394 0.81500006 4283832620
-0.14174458 0.12180061 0.81400001 4286587441
-0.13963048 0.12120209 0.81000006 4287110198
-0.13787165 0.12090282 0.80800003 4287504443
-0.13611981 0.12060355 0.80600005 4287963947
-0.13437498 0.12030429 0.80400002 4287960603
-0.13263714 0.12000503 0.80200005 4288025121
-0.1309063 0.11970577 0.80000001 4288090664
-0.12918247 0.11940651 0.79800004 4288221488
-0.12778591 0.11940651 0.79800004 4288287288
-0.12591419 0.11895761 0.79500002 4288352811
-0.12389634 0.11835907 0.79100001 4288417054
-0.12251203 0.11835907 0.79100001 4288481820
-0.12082145 0.11805981 0.78900003 4288481818
-0.11928924 0.11791018 0.78800005 4288547867
-0.11761092 0.11761092 0.78600001 4288547357
-0.11623535 0.11761092 0.78600001 4288612637
-0.11456752 0.11731166 0.78400004 4288678173
-0.11319545 0.11731166 0.78400004 4288744483
-0.11153813 0.1170124 0.78200006 4288875049
-0.10988779 0.11671312 0.78000003 4289071910
-0.1083836 0.1165635 0.77900004 4289407779
-0.10702028 0.1165635 0.77900004 4289806409
-0.10565697 0.1165635 0.77900004 4290931055
-0.10429364 0.1165635 0.77900004 4292047988
-0.10293033 0.1165635 0.77900004 4291389561
-0.10156702 0.1165635 0.77900004 4290794097
-0.10020371 0.1165635 0.77900004 4291059049
-0.098840393 0.1165635 0.77900004 4291387487
-0.097477071 0.1165635 0.77900004 4290927446
-0.095866986 0.11626422 0.77700001 4290531161
-0.094507173 0.11626422 0.77700001 4290399580
-0.09314736 0.11626422 0.77700001 4290336111
-0.091787547 0.11626422 0.77700001 4290536067
-0.090427727 0.11626422 0.77700001 4290804377
-0.089067914 0.11626422 0.77700001 4291398063
-0.087708101 0.11626422 0.77700001 4291989408
-0.086126022 0.11596496 0.77500004 4291458706
-0.084769711 0.11596496 0.77500004 4290997905
-0.083413392 0.11596496 0.77500004 4290934416
-0.082057074 0.11596496 0.77500004 4290937492
-0.080700763 0.11596496 0.77500004 4290802841
-0.079344444 0.11596496 0.77500004 4290665583
-0.077988133 0.11596496 0.77500004 4290062917
-0.076631814 0.11596496 0.77500004 4289477195
-0.075275496 0.11596496 0.77500004 4289677905
-0.073919185 0.11596496 0.77500004 4289950593
-0.072750129 0.11626422 0.77700001 4290738866
-0.071390308 0.11626422 0.77700001 4291590053
-0.069850244 0.11596496 0.77500004 4291326872
-0.068493925 0.11596496 0.77500004 4291131028
-0.067137614 0.11596496 0.77500004 4290801553
-0.065781295 0.11596496 0.77500004 4290538583
-0.064424977 0.11596496 0.77500004 4290332190
-0.063231416 0.11626422 0.77700001 4290191398
-0.061871603 0.11626422 0.77700001 4289472558
-0.060511786 0.11626422 0.77700001 4288748842
-0.05930423 0.1165635 0.77900004 4288483110
-0.057940915 0.1165635 0.77900004 4288219936
-0.056577604 0.1165635 0.77900004 4288088347
-0.055214286 0.1165635 0.77900004 4288023578
-0.053920098 0.11671312 0.78000003 4287891993
-0.052555032 0.11671312 0.78000003 4287826454
-0.051321223 0.1170124 0.78200006 4287695636
-0.04995266 0.1170124 0.78200006 4287565075
-0.048708346 0.11731166 0.78400004 4287498770
-0.047215525 0.1170124 0.78200006 4287432977
-0.045964215 0.11731166 0.78400004 4287301649
-0.04459215 0.11731166 0.78400004 4287235603
-0.04322008 0.11731166 0.78400004 4287104277
-0.041954767 0.11761092 0.78600001 4287038739
-0.040579204 0.11761092 0.78600001 4286842385
-0.03920364 0.11761092 0.78600001 4286711823
-0.037924327 0.11791018 0.78800005 4286580494
-0.036545262 0.11791018 0.78800005 4286514959
-0.035210822 0.11805981 0.78900003 4286318353
-0.033915754 0.11835907 0.79100001 4286187278
-0.032531444 0.11835907 0.79100001 4286055947
-0.031147124 0.11835907 0.79100001 4285990156
-0.029838063 0.11865835 0.79300004 4285728014
-0.028521998 0.11895761 0.79500002 4285531406
-0.027233062 0.11940651 0.79800004 4285335054
-0.025901247 0.11970577 0.80000001 4285204238
-0.024623686 0.12030429 0.80400002 4285008143
-0.023216618 0.12030429 0.80400002 4284877585
-0.021918055 0.12090282 0.80800003 4284680980
-0.020453237 0.12060355 0.80600005 4284485142
-0.019184425 0.12150135 0.81200004 4284223769
-0.017807107 0.12180061 0.81400001 4284028706
-0.016402666 0.12195025 0.81500006 4283833131
-0.14174458 0.12322518 0.81400001 4286652208
-0.13997523 0.12292243 0.81200004 4287175730
-0.13787165 0.1223169 0.80800003 4287700532
-0.13578203 0.12171137 0.80400002 4288289321
-0.13404071 0.1214086 0.80200005 4288156703
-0.13263714 0.1214086 0.80200005 4288090659
-0.1309063 0.12110583 0.80000001 4288156967
-0.12918247 0.12080307 0.79800004 4288221483
-0.12762578 0.12065169 0.79700005 4288286767
-0.12591419 0.12034892 0.79500002 4288351526
-0.12389634 0.11974339 0.79100001 4288350749
-0.12220225 0.11944063 0.78900003 4288350747
-0.12082145 0.11944063 0.78900003 4288416026
-0.11928924 0.11928924 0.78800005 4288481819
-0.11761092 0.11898647 0.78600001 4288547101
-0.11623535 0.11898647 0.78600001 4288612638
-0.11456752 0.11868372 0.78400004 4288677663
-0.11319545 0.11868372 0.78400004 4288808999
-0.11125286 0.11807819 0.78000003 4288940335
-0.10988779 0.11807819 0.78000003 4289077037
-0.1083836 0.11792681 0.77900004 4289610540
-0.10702028 0.11792681 0.77900004 4290205521
-0.10565697 0.11792681 0.77900004 4291197558
-0.10429364 0.11792681 0.77900004 4292246137
-0.10266607 0.11762404 0.77700001 4292117628
-0.10156702 0.11792681 0.77900004 4291983742
-0.10020371 0.11792681 0.77900004 4292316288
-0.098840393 0.11792681 0.77900004 4292705655
-0.097226806 0.11762404 0.77700001 4291652462
-0.095866986 0.11762404 0.77700001 4290598503
-0.094507173 0.11762404 0.77700001 4290593888
-0.09314736 0.11762404 0.77700001 4290663533
-0.091787547 0.11762404 0.77700001 4290599035
-0.09019497 0.11732128 0.77500004 4290607505
-0.088838652 0.11732128 0.77500004 4291597992
-0.087482341 0.11732128 0.77500004 4292643486
-0.086126022 0.11732128 0.77500004 4291720341
-0.084769711 0.11732128 0.77500004 4290867089
-0.083413392 0.11732128 0.77500004 4290867085
-0.082057074 0.11732128 0.77500004 4290869387
-0.080700763 0.11732128 0.77500004 4290803594
-0.079344444 0.11732128 0.77500004 4290789473
-0.077988133 0.11732128 0.77500004 4290056760
-0.076631814 0.11732128 0.77500004 4289407552
-0.075275496 0.11732128 0.77500004 4289676105
-0.073919185 0.11732128 0.77500004 4289944175
-0.072562873 0.11732128 0.77500004 4290605974
-0.071206555 0.11732128 0.77500004 4291258768
-0.069850244 0.11732128 0.77500004 4291193994
-0.068493925 0.11732128 0.77500004 4291130258
-0.067137614 0.11732128 0.77500004 4291526810
-0.065781295 0.11732128 0.77500004 4291920513
-0.064424977 0.11732128 0.77500004 4291857769
-0.063068666 0.11732128 0.77500004 4291783003
-0.061871603 0.11762404 0.77700001 4290268237
-0.060511786 0.11762404 0.77700001 4288754225
-0.05915197 0.11762404 0.77700001 4288414997
-0.057940915 0.11792681 0.77900004 4288153111
-0.056577604 0.11792681 0.77900004 4288022298
-0.055214286 0.11792681 0.77900004 4287957272
-0.053850971 0.11792681 0.77900004 4287891479
-0.052555032 0.11807819 0.78000003 4287826197
-0.051321223 0.11838096 0.78200006 4287695892
-0.04995266 0.11838096 0.78200006 4287564307
-0.048708346 0.11868372 0.78400004 4287432979
-0.047215525 0.11838096 0.78200006 4287367186
-0.045964215 0.11868372 0.78400004 4287236369
-0.04459215 0.11868372 0.78400004 4287170322
-0.04322008 0.11868372 0.78400004 4287104532
-0.041954767 0.11898647 0.78600001 4287038995
-0.040579204 0.11898647 0.78600001 4286842642
-0.03920364 0.11898647 0.78600001 4286711825
-0.037924327 0.11928924 0.78800005 4286581009
-0.036545262 0.11928924 0.78800005 4286515217
-0.035210822 0.11944063 0.78900003 4286318353
-0.033830006 0.11944063 0.78900003 4286187278
-0.032531444 0.11974339 0.79100001 4286056203
-0.031147124 0.11974339 0.79100001 4285990157
-0.029838063 0.12004616 0.79300004 4285793552
-0.028521998 0.12034892 0.79500002 4285596687
-0.027198935 0.12065169 0.79700005 4285400335
-0.025836494 0.12080307 0.79800004 4285269776
-0.024562433 0.1214086 0.80200005 4285073682
-0.023274371 0.12201413 0.80600005 4284942866
-0.021918055 0.1223169 0.80800003 4284680979
-0.020503988 0.1223169 0.80800003 4284485142
-0.019184425 0.12292243 0.81200004 4284289305
-0.017807107 0.12322518 0.81400001 4284093728
-0.016382538 0.12322518 0.81400001 4283897896
-0.014976347 0.12337657 0.81500006 4283704112
-0.14174458 0.12464975 0.81400001 4286652207
-0.13963048 0.12403724 0.81000006 4287109422
-0.13718911 0.12311842 0.80400002 4287502381
-0.13578203 0.12311842 0.80400002 4287894568
-0.13404071 0.12281217 0.80200005 4287894052
-0.13230637 0.1225059 0.80000001 4287893797
-0.13057904 0.12219964 0.79800004 4287959078
-0.12902059 0.1220465 0.79700005 4288089894
-0.12730551 0.12174024 0.79500002 4288154663
-0.12559742 0.12143397 0.79300004 4288285217
-0.12389634 0.12112771 0.79100001 4288285212
-0.12220225 0.12082145 0.78900003 4288285979
-0.12082145 0.12082145 0.78900003 4288350746
-0.11928924 0.12066831 0.78800005 4288481819
-0.11761092 0.12036204 0.78600001 4288547357
-0.11623535 0.12036204 0.78600001 4288613407
-0.11456752 0.12005579 0.78400004 4288677922
-0.11319545 0.12005579 0.78400004 4288808492
-0.11125286 0.11944325 0.78000003 4288943926
-0.10988779 0.11944325 0.78000003 4289078837
-0.1083836 0.11929013 0.77900004 4289543733
-0.10702028 0.11929013 0.77900004 4290011993
-0.10565697 0.11929013 0.77900004 4290471806
-0.10429364 0.11929013 0.77900004 4291000702
-0.10266607 0.11898386 0.77700001 4291329407
-0.10156702 0.11929013 0.77900004 4291659147
-0.099946439 0.11898386 0.77700001 4292120984
-0.098586619 0.11898386 0.77700001 4292649103
-0.097226806 0.11898386 0.77700001 4291654791
-0.095866986 0.11898386 0.77700001 4290730870
-0.094507173 0.11898386 0.77700001 4290729573
-0.09314736 0.11898386 0.77700001 4290797420
-0.091551289 0.11867759 0.77500004 4290536052
-0.09019497 0.11867759 0.77500004 4290281098
-0.088838652 0.11867759 0.77500004 4291266721
-0.087482341 0.11867759 0.77500004 4292252060
-0.086126022 0.11867759 0.77500004 4291657880
-0.084769711 0.11867759 0.77500004 4291128721
-0.083413392 0.11867759 0.77500004 4291064202
-0.082057074 0.11867759 0.77500004 4291000450
-0.080700763 0.11867759 0.77500004 4290336635
-0.079139695 0.11837133 0.77300006 4289732179
-0.07778687 0.11837133 0.77300006 4289402668
-0.076631814 0.11867759 0.77500004 4289141302
-0.075275496 0.11867759 0.77500004 4289539393
-0.073728427 0.11837133 0.77300006 4290003293
-0.072562873 0.11867759 0.77500004 4290929018
-0.071206555 0.11867759 0.77500004 4291907963
-0.069850244 0.11867759 0.77500004 4291784060
-0.068493925 0.11867759 0.77500004 4291652751
-0.067137614 0.11867759 0.77500004 4291722403
-0.065781295 0.11867759 0.77500004 4291859116
-0.064424977 0.11867759 0.77500004 4292519349
-0.063068666 0.11867759 0.77500004 4293242513
-0.061871603 0.11898386 0.77700001 4291524717
-0.060511786 0.11898386 0.77700001 4289813560
-0.05915197 0.11898386 0.77700001 4288946948
-0.057792153 0.11898386 0.77700001 4288152079
-0.056577604 0.11929013 0.77900004 4288087322
-0.055214286 0.11929013 0.77900004 4288023063
-0.053850971 0.11929013 0.77900004 4287891477
-0.052487653 0.11929013 0.77900004 4287826197
-0.051189966 0.11944325 0.78000003 4287695125
-0.04995266 0.11974952 0.78200006 4287629589
-0.048584092 0.11974952 0.78200006 4287498261
-0.047215525 0.11974952 0.78200006 4287367187
-0.045964215 0.12005579 0.78400004 4287236113
-0.04459215 0.12005579 0.78400004 4287170578
-0.04322008 0.12005579 0.78400004 4287039252
-0.041954767 0.12036204 0.78600001 4286973971
-0.040579204 0.12036204 0.78600001 4286842643
-0.03920364 0.12036204 0.78600001 4286777363
-0.037828069 0.12036204 0.78600001 4286646036
-0.036452506 0.12036204 0.78600001 4286515474
-0.035166197 0.12066831 0.78800005 4286318609
-0.033830006 0.12082145 0.78900003 4286187278
-0.032531444 0.12112771 0.79100001 4286055948
-0.031147124 0.12112771 0.79100001 4285989903
-0.029762808 0.12112771 0.79100001 4285793042
-0.028450245 0.12143397 0.79300004 4285596433
-0.027130682 0.12174024 0.79500002 4285400337
-0.025836494 0.12219964 0.79800004 4285269779
-0.024562433 0.12281217 0.80200005 4285073430
-0.023216618 0.12311842 0.80400002 4284942868
-0.021863803 0.12342469 0.80600005 4284680978
-0.020453237 0.12342469 0.80600005 4284485142
-0.019184425 0.12434349 0.81200004 4284289306
-0.017807107 0.12464975 0.81400001 4284093728
-0.016382538 0.12464975 0.81400001 4283701286
-0.01495797 0.12464975 0.81400001 4283376175
-0.013533402 0.12464975 0.81400001 4283313976
-0.13963048 0.1254548 0.81000006 4287043884
-0.13718911 0.12452549 0.80400002 4287305257
-0.13544428 0.12421574 0.80200005 4287566885
-0.13404071 0.12421574 0.80200005 4287631905
-0.13230637 0.12390597 0.80000001 4287761953
-0.13057904 0.1235962 0.79800004 4287892258
-0.12902059 0.12344133 0.79700005 4288023585
-0.12730551 0.12313155 0.79500002 4288088865
-0.12559742 0.12282179 0.79300004 4288219933
-0.12389634 0.12251203 0.79100001 4288219929
-0.12220225 0.12220225 0.78900003 4288285721
-0.12066831 0.12204739 0.78800005 4288351257
-0.11928924 0.12204739 0.78800005 4288481818
-0.11761092 0.12173761 0.78600001 4288547099
-0.11623535 0.12173761 0.78600001 4288612639
-0.11456752 0.12142785 0.78400004 4288743204
-0.11319545 0.12142785 0.78400004 4288877098
-0.11125286 0.12080833 0.78000003 4289013553
-0.10988779 0.12080833 0.78000003 4289144885
-0.1083836 0.12065344 0.77900004 4289474361
-0.10702028 0.12065344 0.77900004 4289807436
-0.10565697 0.12065344 0.77900004 4289742944
-0.10402589 0.12034367 0.77700001 4289750128
-0.10266607 0.12034367 0.77700001 4290540160
-0.10130625 0.12034367 0.77700001 4291329932
-0.099946439 0.12034367 0.77700001 4291990681
-0.098586619 0.12034367 0.77700001 4292645265
-0.097226806 0.12034367 0.77700001 4291783562
-0.095866986 0.12034367 0.77700001 4290931062
-0.094507173 0.12034367 0.77700001 4290927971
-0.09314736 0.12034367 0.77700001 4290926690
-0.091551289 0.1200339 0.77500004 4290467426
-0.09019497 0.1200339 0.77500004 4290012797
-0.088838652 0.1200339 0.77500004 4290936729
-0.087482341 0.1200339 0.77500004 4291922331
-0.085903764 0.11972415 0.77300006 4291661469
-0.084550947 0.11972415 0.77300006 4291459212
-0.083198138 0.11972415 0.77300006 4291260796
-0.081845321 0.11972415 0.77300006 4291124841
-0.080492504 0.11972415 0.77300006 4289875799
-0.079139695 0.11972415 0.77300006 4288686661
-0.07778687 0.11972415 0.77300006 4288746804
-0.076631814 0.1200339 0.77500004 4288877621
-0.075275496 0.1200339 0.77500004 4289468214
-0.073919185 0.1200339 0.77500004 4290070624
-0.072562873 0.1200339 0.77500004 4291330698
-0.071206555 0.1200339 0.77500004 4292641428
-0.069850244 0.1200339 0.77500004 4292447390
-0.068493925 0.1200339 0.77500004 4292249764
-0.067137614 0.1200339 0.77500004 4292048043
-0.065781295 0.1200339 0.77500004 4291862708
-0.064424977 0.1200339 0.77500004 4293248958
-0.063068666 0.1200339 0.77500004 4294683547
-0.061871603 0.12034367 0.77700001 4292775289
-0.060511786 0.12034367 0.77700001 4290862678
-0.05915197 0.12034367 0.77700001 4289473076
-0.057792153 0.12034367 0.77700001 4288160038
-0.05643234 0.12034367 0.77700001 4288152344
-0.055214286 0.12065344 0.77900004 4288153112
-0.053850971 0.12065344 0.77900004 4288022809
-0.052487653 0.12065344 0.77900004 4287891735
-0.051189966 0.12080833 0.78000003 4287760662
-0.049824901 0.12080833 0.78000003 4287695125
-0.048584092 0.12111809 0.78200006 4287498773
-0.047215525 0.12111809 0.78200006 4287367187
-0.045846961 0.12111809 0.78200006 4287236369
-0.04459215 0.12142785 0.78400004 4287170322
-0.04322008 0.12142785 0.78400004 4287038996
-0.041954767 0.12173761 0.78600001 4286973715
-0.040579204 0.12173761 0.78600001 4286908179
-0.03920364 0.12173761 0.78600001 4286842386
-0.037828069 0.12173761 0.78600001 4286645521
-0.036452506 0.12173761 0.78600001 4286515217
-0.035166197 0.12204739 0.78800005 4286318865
-0.033830006 0.12220225 0.78900003 4286187278
-0.032531444 0.12251203 0.79100001 4286056460
-0.031147124 0.12251203 0.79100001 4285990157
-0.029762808 0.12251203 0.79100001 4285793295
-0.028450245 0.12282179 0.79300004 4285596944
-0.027130682 0.12313155 0.79500002 4285400593
-0.025836494 0.1235962 0.79800004 4285270035
-0.024501178 0.12390597 0.80000001 4285073942
-0.023216618 0.12452549 0.80400002 4284942612
-0.021863803 0.12483526 0.80600005 4284680466
-0.020453237 0.12483526 0.80600005 4284484885
-0.019184425 0.12576455 0.81200004 4284289305
-0.017807107 0.12607431 0.81400001 4284093216
-0.016382538 0.12607431 0.81400001 4283569447
-0.01495797 0.12607431 0.81400001 4283113774
-0.013533402 0.12607431 0.81400001 4283182389
-0.012108833 0.12607431 0.81400001 4283251260
-0.13928571 0.12655909 0.80800003 4287043882
-0.13753039 0.12624583 0.80600005 4287305254
-0.13578203 0.12593256 0.80400002 4287567138
-0.13404071 0.12561931 0.80200005 4287631646
-0.13230637 0.12530603 0.80000001 4287761950
-0.13057904 0.12499277 0.79800004 4287826718
-0.12902059 0.12483614 0.79700005 4287957788
-0.12698524 0.12420961 0.79300004 4288023323
-0.12559742 0.12420961 0.79300004 4288154649
-0.12389634 0.12389634 0.79100001 4288219927
-0.12220225 0.12358308 0.78900003 4288285976
-0.12066831 0.12342644 0.78800005 4288351001
-0.11898647 0.12311318 0.78600001 4288416281
-0.11761092 0.12311318 0.78600001 4288481818
-0.11593958 0.12279992 0.78400004 4288547360
-0.11456752 0.12279992 0.78400004 4288613414
-0.11290669 0.12248666 0.78200006 4288746793
-0.11125286 0.12217339 0.78000003 4288879917
-0.10988779 0.12217339 0.78000003 4289012789
-0.1083836 0.12201676 0.77900004 4289276222
-0.10702028 0.12201676 0.77900004 4289542464
-0.10565697 0.12201676 0.77900004 4289676610
-0.10429364 0.12201676 0.77900004 4289879394
-0.10266607 0.12170349 0.77700001 4290339970
-0.10156702 0.12201676 0.77900004 4290868110
-0.099946439 0.12170349 0.77700001 4291923610
-0.098586619 0.12170349 0.77700001 4292978579
-0.097226806 0.12170349 0.77700001 4292512909
-0.095866986 0.12170349 0.77700001 4292052087
-0.094507173 0.12170349 0.77700001 4291389538
-0.0929076 0.12139022 0.77500004 4290728025
-0.091551289 0.12139022 0.77500004 4291056464
-0.09019497 0.12139022 0.77500004 4291447153
-0.088609397 0.12107696 0.77300006 4291655058
-0.087256581 0.12107696 0.77300006 4291922074
-0.085903764 0.12107696 0.77300006 4291197858
-0.084550947 0.12107696 0.77300006 4290541192
-0.083198138 0.12107696 0.77300006 4290136686
-0.081845321 0.12107696 0.77300006 4289741136
-0.080492504 0.12107696 0.77300006 4289146419
-0.079139695 0.12107696 0.77300006 4288620599
-0.07778687 0.12107696 0.77300006 4288746556
-0.076434061 0.12107696 0.77300006 4288875571
-0.075081244 0.12107696 0.77300006 4289010475
-0.073728427 0.12107696 0.77300006 4289218402
-0.072562873 0.12139022 0.77500004 4290142362
-0.071206555 0.12139022 0.77500004 4291144877
-0.069850244 0.12139022 0.77500004 4292192448
-0.068493925 0.12139022 0.77500004 4293244857
-0.067137614 0.12139022 0.77500004 4293110707
-0.065781295 0.12139022 0.77500004 4293048253
-0.064424977 0.12139022 0.77500004 4292851144
-0.063068666 0.12139022 0.77500004 4292652455
-0.061712347 0.12139022 0.77500004 4291921798
-0.060356036 0.12139022 0.77500004 4291258485
-0.05915197 0.12170349 0.77700001 4290402916
-0.057792153 0.12170349 0.77700001 4289615421
-0.05643234 0.12170349 0.77700001 4288747799
-0.055072527 0.12170349 0.77700001 4287956250
-0.053850971 0.12201676 0.77900004 4287891486
-0.052487653 0.12201676 0.77900004 4287891738
-0.051189966 0.12217339 0.78000003 4287760663
-0.04995266 0.12248666 0.78200006 4287695382
-0.048584092 0.12248666 0.78200006 4287498517
-0.047215525 0.12248666 0.78200006 4287367443
-0.045964215 0.12279992 0.78400004 4287236114
-0.04459215 0.12279992 0.78400004 4287170579
-0.04322008 0.12279992 0.78400004 4287039509
-0.041954767 0.12311318 0.78600001 4286974228
-0.040579204 0.12311318 0.78600001 4286908436
-0.03920364 0.12311318 0.78600001 4286842641
-0.037924327 0.12342644 0.78800005 4286646031
-0.036452506 0.12311318 0.78600001 4286450192
-0.035166197 0.12342644 0.78800005 4286318865
-0.033830006 0.12358308 0.78900003 4286187534
-0.032449186 0.12358308 0.78900003 4286055948
-0.031147124 0.12389634 0.79100001 4285990668
-0.029762808 0.12389634 0.79100001 4285793805
-0.028450245 0.12420961 0.79300004 4285597967
-0.027062429 0.12420961 0.79300004 4285401106
-0.025804119 0.12483614 0.79700005 4285270548
-0.024562433 0.12561931 0.80200005 4285073942
-0.023216618 0.12593256 0.80400002 4284877588
-0.021863803 0.12624583 0.80600005 4284680722
-0.020503988 0.12655909 0.80800003 4284484629
-0.019137172 0.12687236 0.81000006 4284288793
-0.017807107 0.12749889 0.81400001 4284093473
-0.016382538 0.12749889 0.81400001 4283701033
-0.014976347 0.12765552 0.81500006 4283310126
-0.013533402 0.12749889 0.81400001 4283247667
-0.14104806 0.12828994 0.81000006 4286652716
-0.13928571 0.12797315 0.80800003 4287044137
-0.13787165 0.12797315 0.80800003 4287305254
-0.13578203 0.12733963 0.80400002 4287566625
-0.13404071 0.12702286 0.80200005 4287631644
-0.13230637 0.12670609 0.80000001 4287761947
-0.13057904 0.12638934 0.79800004 4287826715
-0.12869681 0.12591419 0.79500002 4287957530
-0.12698524 0.12559742 0.79300004 4288023577
-0.12559742 0.12559742 0.79300004 4288088599
-0.12389634 0.12528066 0.79100001 4288153877
-0.12220225 0.12496389 0.78900003 4288285206
-0.12066831 0.12480551 0.78800005 4288285208
-0.11898647 0.12448875 0.78600001 4288350745
-0.11761092 0.12448875 0.78600001 4288416538
-0.11593958 0.12417198 0.78400004 4288482078
-0.11456752 0.12417198 0.78400004 4288548386
-0.11290669 0.12385522 0.78200006 4288680230
-0.11125286 0.12353845 0.78000003 4288746794
-0.10988779 0.12353845 0.78000003 4288878640
-0.1083836 0.12338007 0.77900004 4289075766
-0.10702028 0.12338007 0.77900004 4289275195
-0.10565697 0.12338007 0.77900004 4289607744
-0.10429364 0.12338007 0.77900004 4290003018
-0.10266607 0.1230633 0.77700001 4290203476
-0.10156702 0.12338007 0.77900004 4290471790
-0.099946439 0.1230633 0.77700001 4291857801
-0.098586619 0.1230633 0.77700001 4293300880
-0.097226806 0.1230633 0.77700001 4293237655
-0.095866986 0.1230633 0.77700001 4293170573
-0.094263919 0.12274654 0.77500004 4291850115
-0.0929076 0.12274654 0.77500004 4290602114
-0.091551289 0.12274654 0.77500004 4291714946
-0.09019497 0.12274654 0.77500004 4292902291
-0.088609397 0.12242977 0.77300006 4292380580
-0.087256581 0.12242977 0.77300006 4291921565
-0.085903764 0.12242977 0.77300006 4290732695
-0.084550947 0.12242977 0.77300006 4289611371
-0.083198138 0.12242977 0.77300006 4288938303
-0.081845321 0.12242977 0.77300006 4288352561
-0.080492504 0.12242977 0.77300006 4288479524
-0.079139695 0.12242977 0.77300006 4288613932
-0.07778687 0.12242977 0.77300006 4288743989
-0.076631814 0.12274654 0.77500004 4288875049
-0.075081244 0.12242977 0.77300006 4288611358
-0.073728427 0.12242977 0.77300006 4288353845
-0.072562873 0.12274654 0.77500004 4288941645
-0.071206555 0.12274654 0.77500004 4289619067
-0.069850244 0.12274654 0.77500004 4291933098
-0.068493925 0.12274654 0.77500004 4294291626
-0.067137614 0.12274654 0.77500004 4294233515
-0.065781295 0.12274654 0.77500004 4294224041
-0.064424977 0.12274654 0.77500004 4292454824
-0.063068666 0.12274654 0.77500004 4290672535
-0.061712347 0.12274654 0.77500004 4291197830
-0.060356036 0.12274654 0.77500004 4291720312
-0.058999717 0.12274654 0.77500004 4291395946
-0.057792153 0.1230633 0.77700001 4291053633
-0.05643234 0.1230633 0.77700001 4289398552
-0.055214286 0.12338007 0.77900004 4287825693
-0.053850971 0.12338007 0.77900004 4287826466
-0.052487653 0.12338007 0.77900004 4287892510
-0.051124338 0.12338007 0.77900004 4287761434
-0.049824901 0.12353845 0.78000003 4287695383
-0.048584092 0.12385522 0.78200006 4287498773
-0.047215525 0.12385522 0.78200006 4287367445
-0.045964215 0.12417198 0.78400004 4287236373
-0.04459215 0.12417198 0.78400004 4287170581
-0.04322008 0.12417198 0.78400004 4287105558
-0.041954767 0.12448875 0.78600001 4287039765
-0.040579204 0.12448875 0.78600001 4286908948
-0.03920364 0.12448875 0.78600001 4286843154
-0.037828069 0.12448875 0.78600001 4286646544
-0.036452506 0.12448875 0.78600001 4286449936
-0.035166197 0.12480551 0.78800005 4286318864
-0.033830006 0.12496389 0.78900003 4286252815
-0.032449186 0.12496389 0.78900003 4286121230
-0.031147124 0.12528066 0.79100001 4285990413
-0.029762808 0.12528066 0.79100001 4285793805
-0.028450245 0.12559742 0.79300004 4285662991
-0.027062429 0.12559742 0.79300004 4285466898
-0.025804119 0.12623096 0.79700005 4285270290
-0.024501178 0.12670609 0.80000001 4285008402
-0.023158865 0.12702286 0.80200005 4284811794
-0.02180955 0.12733963 0.80400002 4284615443
-0.020453237 0.12765642 0.80600005 4284484630
-0.019089919 0.12797315 0.80800003 4284288537
-0.017807107 0.12892346 0.81400001 4284092960
-0.016402666 0.12908185 0.81500006 4283766056
-0.014976347 0.12908185 0.81500006 4283506733
-0.013550027 0.12908185 0.81500006 4283378739
-0.012183213 0.12971538 0.81900007 4283250489
-0.14104806 0.1297075 0.81000006 4286652458
-0.13928571 0.12938723 0.80800003 4287043880
-0.13787165 0.12938723 0.80800003 4287239718
-0.13578203 0.1287467 0.80400002 4287501344
-0.13404071 0.12842643 0.80200005 4287566106
-0.13197561 0.12778591 0.79800004 4287697177
-0.13041541 0.12762578 0.79700005 4287826968
-0.12869681 0.12730551 0.79500002 4287957528
-0.12698524 0.12698524 0.79300004 4288022808
-0.12559742 0.12698524 0.79300004 4288088342
-0.12389634 0.12666498 0.79100001 4288153876
-0.12220225 0.12634471 0.78900003 4288285206
-0.12082145 0.12634471 0.78900003 4288284952
-0.11898647 0.12586431 0.78600001 4288350745
-0.11761092 0.12586431 0.78600001 4288350747
-0.11593958 0.12554404 0.78400004 4288416540
-0.11456752 0.12554404 0.78400004 4288482590
-0.11290669 0.12522379 0.78200006 4288613922
-0.11125286 0.12490351 0.78000003 4288679975
-0.10988779 0.12490351 0.78000003 4288745003
-0.1083836 0.12474339 0.77900004 4288876335
-0.10702028 0.12474339 0.77900004 4289071415
-0.10565697 0.12474339 0.77900004 4289206847
-0.10429364 0.12474339 0.77900004 4289339443
-0.10266607 0.12442311 0.77700001 4289475111
-0.10156702 0.12474339 0.77900004 4289613647
-0.099946439 0.12442311 0.77700001 4290271608
-0.098586619 0.12442311 0.77700001 4290935436
-0.097226806 0.12442311 0.77700001 4291464609
-0.095866986 0.12442311 0.77700001 4292069283
-0.094507173 0.12442311 0.77700001 4291265189
-0.09314736 0.12442311 0.77700001 4290475181
-0.091551289 0.12410286 0.77500004 4291528629
-0.09019497 0.12410286 0.77500004 4292593845
-0.088838652 0.12410286 0.77500004 4292255926
-0.087482341 0.12410286 0.77500004 4291930273
-0.085903764 0.1237826 0.77300006 4291064717
-0.084550947 0.1237826 0.77300006 4290265935
-0.083198138 0.1237826 0.77300006 4289469969
-0.081845321 0.1237826 0.77300006 4288676115
-0.080388375 0.12362245 0.77200001 4288742677
-0.079037309 0.12362245 0.77200001 4288808994
-0.07778687 0.1237826 0.77300006 4288876079
-0.076434061 0.1237826 0.77300006 4288941600
-0.075081244 0.1237826 0.77300006 4288743441
-0.073728427 0.1237826 0.77300006 4288545033
-0.07237561 0.1237826 0.77300006 4289207809
-0.071206555 0.12410286 0.77500004 4289865035
-0.069850244 0.12410286 0.77500004 4290932117
-0.068493925 0.12410286 0.77500004 4291988380
-0.067137614 0.12410286 0.77500004 4291722916
-0.065781295 0.12410286 0.77500004 4291523734
-0.064424977 0.12410286 0.77500004 4290530697
-0.063068666 0.12410286 0.77500004 4289531528
-0.061712347 0.12410286 0.77500004 4289740423
-0.060356036 0.12410286 0.77500004 4290014587
-0.058999717 0.12410286 0.77500004 4289810032
