# .PCD v0.7 - Point Cloud Data file format
VERSION 0.7
FIELDS x y z rgba
SIZE 4 4 4 4
TYPE F F F U
COUNT 1 1 1 1
WIDTH 1056
HEIGHT 1
VIEWPOINT 0 0 0 1 0 0 0
POINTS 1056
DATA ascii
-0.11415187 0.16794071 0.68300003 4280221990
-0.11279119 0.16769484 0.68200004 4281351511
-0.11176126 0.16794071 0.68300003 4283666056
-0.11040407 0.16769484 0.68200004 4285945703
-0.10889024 0.16720305 0.68000001 4283175238
-0.10770018 0.16720305 0.68000001 4280424001
-0.10651013 0.16720305 0.68000001 4281084476
-0.10532007 0.16720305 0.68000001 4281808969
-0.10413001 0.16720305 0.68000001 4281481047
-0.10293996 0.16720305 0.68000001 4281156197
-0.1017499 0.16720305 0.68000001 4284238195
-0.10055984 0.16720305 0.68000001 4287333777
-0.099369779 0.16720305 0.68000001 4286298031
-0.098179728 0.16720305 0.68000001 4285231218
-0.096989669 0.16720305 0.68000001 4281860406
-0.09579961 0.16720305 0.68000001 4278591321
-0.094609559 0.16720305 0.68000001 4282080892
-0.0934195 0.16720305 0.68000001 4285555842
-0.092229441 0.16720305 0.68000001 4286018184
-0.091039382 0.16720305 0.68000001 4286536805
-0.089849323 0.16720305 0.68000001 4282384707
-0.088659264 0.16720305 0.68000001 4278327903
-0.087469205 0.16720305 0.68000001 4282535804
-0.086279154 0.16720305 0.68000001 4286744211
-0.085089095 0.16720305 0.68000001 4288593578
-0.083899036 0.16720305 0.68000001 4290417031
-0.082708985 0.16720305 0.68000001 4284896101
-0.081758693 0.16769484 0.68200004 4279440697
-0.080683261 0.16794071 0.68300003 4279107853
-0.079604328 0.1681866 0.68400002 4278780431
-0.07840728 0.1681866 0.68400002 4280943378
-0.077210218 0.1681866 0.68400002 4283187794
-0.076013163 0.1681866 0.68400002 4284190610
-0.0748161 0.1681866 0.68400002 4285221963
-0.073619045 0.1681866 0.68400002 4281794821
-0.072633751 0.16867837 0.68600005 4278453264
-0.071224928 0.1681866 0.68400002 4278979100
-0.070232637 0.16867837 0.68600005 4279568668
-0.06903208 0.16867837 0.68600005 4278977820
-0.0679304 0.16892427 0.68700004 4278389031
-0.066922352 0.16941604 0.68900001 4282130226
-0.065716535 0.16941604 0.68900001 4285948250
-0.064604364 0.16966192 0.69000006 4285827458
-0.063488685 0.16990781 0.69100004 4285690747
-0.062279377 0.16990781 0.69100004 4284770933
-0.06107007 0.16990781 0.69100004 4283907904
-0.060034014 0.17039958 0.69300002 4281270795
-0.058821205 0.17039958 0.69300002 4278649618
-0.057691526 0.17064548 0.69400001 4278978329
-0.056476969 0.17064548 0.69400001 4279306264
-0.055342045 0.17089136 0.69500005 4279306520
-0.054125734 0.17089136 0.69500005 4279306521
-0.053061683 0.17138313 0.69700003 4279306778
-0.051916249 0.17162901 0.69800001 4279306265
-0.050839949 0.17212079 0.70000005 4279306008
-0.049685769 0.17236668 0.70100003 4279306265
-0.04845896 0.17236668 0.70100003 4279306779
-0.047366906 0.17285845 0.70300001 4279372828
-0.046267856 0.17335023 0.70500004 4279635997
-0.045161799 0.173842 0.70700002 4279963161
-0.044110876 0.17457967 0.71000004 4279700758
-0.043049447 0.17531732 0.71300006 4279438100
-0.041860264 0.17556322 0.71400005 4279372819
-0.040781338 0.17630087 0.71700001 4279307030
-0.03952653 0.17630087 0.71700001 4279438873
-0.038378473 0.17679265 0.71900004 4279636508
-0.037636437 0.17925151 0.72900003 4280030496
-0.036460381 0.17974328 0.73100001 4280491049
-0.035181068 0.17974328 0.73100001 4281017650
-0.033809002 0.17925151 0.72900003 4281610550
-0.15535237 0.17656514 0.71300006 4281606454
-0.15367228 0.17606986 0.71100003 4281343283
-0.15178481 0.17532694 0.708 4281080622
-0.15033312 0.1750793 0.70700002 4281080618
-0.14867404 0.17458405 0.70500004 4281145897
-0.1472311 0.1743364 0.70400006 4280816937
-0.14579165 0.17408876 0.70300001 4280552999
-0.14415006 0.17359349 0.70100003 4280355878
-0.14292327 0.17359349 0.70100003 4280224548
-0.14149432 0.17334585 0.70000005 4280290850
-0.14026926 0.17334585 0.70000005 4280422694
-0.1384483 0.17260294 0.69700003 4280356906
-0.13683473 0.17210767 0.69500005 4280357160
-0.13542327 0.17186002 0.69400001 4280488231
-0.13401532 0.17161238 0.69300002 4280620062
-0.13222763 0.17086948 0.69000006 4280355094
-0.13102007 0.17086948 0.69000006 4280156739
-0.12981251 0.17086948 0.69000006 4282924912
-0.12860495 0.17086948 0.69000006 4285693315
-0.12721275 0.17062184 0.68900001 4286614167
-0.12564118 0.17012657 0.68700004 4287598983
-0.12443887 0.17012657 0.68700004 4286018424
-0.12323656 0.17012657 0.68700004 4284437840
-0.12185662 0.16987894 0.68600005 4282000425
-0.12065607 0.16987894 0.68600005 4279570220
-0.11945551 0.16987894 0.68600005 4279898160
-0.11791018 0.16938366 0.68400002 4280290603
-0.11671312 0.16938366 0.68400002 4279962407
-0.11534718 0.16913602 0.68300003 4279634462
-0.11398474 0.16888839 0.68200004 4279961622
-0.11279119 0.16888839 0.68200004 4280357710
-0.11159763 0.16888839 0.68200004 4282799238
-0.11040407 0.16888839 0.68200004 4285291107
-0.10889024 0.16839311 0.68000001 4282786881
-0.10770018 0.16839311 0.68000001 4280290877
-0.10651013 0.16839311 0.68000001 4280819001
-0.10532007 0.16839311 0.68000001 4281348650
-0.10413001 0.16839311 0.68000001 4280556060
-0.10293996 0.16839311 0.68000001 4279763261
-0.1017499 0.16839311 0.68000001 4283908959
-0.10055984 0.16839311 0.68000001 4288060297
-0.099369779 0.16839311 0.68000001 4286944436
-0.098179728 0.16839311 0.68000001 4285811556
-0.096847035 0.16814548 0.67900002 4282128661
-0.09579961 0.16839311 0.68000001 4278524478
-0.094609559 0.16839311 0.68000001 4281878631
-0.0934195 0.16839311 0.68000001 4285230711
-0.092229441 0.16839311 0.68000001 4286083975
-0.091039382 0.16839311 0.68000001 4287005814
-0.089849323 0.16839311 0.68000001 4284499813
-0.088659264 0.16839311 0.68000001 4282062968
-0.087469205 0.16839311 0.68000001 4284900492
-0.086279154 0.16839311 0.68000001 4287735192
-0.085089095 0.16839311 0.68000001 4289376677
-0.083899036 0.16839311 0.68000001 4291009414
-0.082708985 0.16839311 0.68000001 4286210151
-0.081758693 0.16888839 0.68200004 4281467190
-0.080565132 0.16888839 0.68200004 4280418565
-0.079604328 0.16938366 0.68400002 4279436300
-0.07840728 0.16938366 0.68400002 4281011475
-0.077210218 0.16938366 0.68400002 4282658134
-0.076013163 0.16938366 0.68400002 4283456409
-0.0748161 0.16938366 0.68400002 4284306511
-0.073619045 0.16938366 0.68400002 4281406981
-0.072421983 0.16938366 0.68400002 4278584080
-0.071224928 0.16938366 0.68400002 4279044124
-0.070027873 0.16938366 0.68400002 4279503896
-0.06903208 0.16987894 0.68600005 4278978069
-0.0679304 0.17012657 0.68700004 4278452535
-0.066728093 0.17012657 0.68700004 4282005594
-0.065716535 0.17062184 0.68900001 4285633649
-0.064604364 0.17086948 0.69000006 4285300360
-0.063396804 0.17086948 0.69000006 4285030276
-0.062189247 0.17086948 0.69000006 4284375681
-0.060981687 0.17086948 0.69000006 4283785800
-0.059860758 0.17111711 0.69100004 4281211407
-0.058821205 0.17161238 0.69300002 4278649364
-0.057691526 0.17186002 0.69400001 4278978074
-0.056476969 0.17186002 0.69400001 4279306522
-0.055342045 0.17210767 0.69500005 4279306522
-0.054281488 0.17260294 0.69700003 4279306778
-0.053061683 0.17260294 0.69700003 4279306523
-0.051916249 0.17285056 0.69800001 4279306521
-0.050839949 0.17334585 0.70000005 4279306263
-0.049685769 0.17359349 0.70100003 4279306777
-0.04845896 0.17359349 0.70100003 4279306780
-0.047366906 0.17408876 0.70300001 4279372830
-0.046399109 0.1750793 0.70700002 4279570209
-0.04522568 0.17532694 0.708 4279832603
-0.044297259 0.17656514 0.71300006 4279569686
-0.043109827 0.17681277 0.71400005 4279307027
-0.041977521 0.17730804 0.71600002 4279306769
-0.04072446 0.17730804 0.71600002 4279306516
-0.039471403 0.17730804 0.71600002 4279504151
-0.038271718 0.17755567 0.71700001 4279702043
-0.037584811 0.18027969 0.72800004 4280096032
-0.036360625 0.18052731 0.72900003 4280490536
-0.035084814 0.18052731 0.72900003 4281083441
-0.033809002 0.18052731 0.72900003 4281677109
-0.032533191 0.18052731 0.72900003 4282137401
-0.15535237 0.17781295 0.71300006 4281476406
-0.15367228 0.17731416 0.71100003 4281278002
-0.15221359 0.17706478 0.71000004 4281146414
-0.15054575 0.17656599 0.708 4281409067
-0.14867404 0.17581785 0.70500004 4281670187
-0.1472311 0.17556846 0.70400006 4281144619
-0.14579165 0.17531906 0.70300001 4280684841
-0.14415006 0.17482029 0.70100003 4280421415
-0.14292327 0.17482029 0.70100003 4280159269
-0.14169645 0.17482029 0.70100003 4280224804
-0.14026926 0.17457092 0.70000005 4280356390
-0.1384483 0.17382275 0.69700003 4280421928
-0.13683473 0.17332397 0.69500005 4280553255
-0.13542327 0.17307459 0.69400001 4280619558
-0.13401532 0.1728252 0.69300002 4280684324
-0.13222763 0.17207704 0.69000006 4280092963
-0.13102007 0.17207704 0.69000006 4279504183
-0.12981251 0.17207704 0.69000006 4281804875
-0.12841856 0.17182764 0.68900001 4284112235
-0.12684348 0.17132889 0.68700004 4285761420
-0.12564118 0.17132889 0.68700004 4287399046
-0.12443887 0.17132889 0.68700004 4286086528
-0.12323656 0.17132889 0.68700004 4284764750
-0.12185662 0.17107949 0.68600005 4282061340
-0.12065607 0.17107949 0.68600005 4279373093
-0.11945551 0.17107949 0.68600005 4279832623
-0.11791018 0.17058071 0.68400002 4280290346
-0.11671312 0.17058071 0.68400002 4280158758
-0.11534718 0.17033133 0.68300003 4280092960
-0.11398474 0.17008194 0.68200004 4279698459
-0.11279119 0.17008194 0.68200004 4279376959
-0.11159763 0.17008194 0.68200004 4282013283
-0.11040407 0.17008194 0.68200004 4284696405
-0.10889024 0.16958316 0.68000001 4282390599
-0.10770018 0.16958316 0.68000001 4280160062
-0.10651013 0.16958316 0.68000001 4280486966
-0.10532007 0.16958316 0.68000001 4280881449
-0.10413001 0.16958316 0.68000001 4279632412
-0.10293996 0.16958316 0.68000001 4278389568
-0.1017499 0.16958316 0.68000001 4283574629
-0.10055984 0.16958316 0.68000001 4288842892
-0.099369779 0.16958316 0.68000001 4287608499
-0.098035343 0.16933377 0.67900002 4286404193
-0.096847035 0.16933377 0.67900002 4282384656
-0.095658727 0.16933377 0.67900002 4278457639
-0.094609559 0.16958316 0.68000001 4281678399
-0.093282118 0.16933377 0.67900002 4284961891
-0.09209381 0.16933377 0.67900002 4286212487
-0.091039382 0.16958316 0.68000001 4287528582
-0.089849323 0.16958316 0.68000001 4286676870
-0.088659264 0.16958316 0.68000001 4285819787
-0.087469205 0.16958316 0.68000001 4287268497
-0.086279154 0.16958316 0.68000001 4288717982
-0.085089095 0.16958316 0.68000001 4290169004
-0.083899036 0.16958316 0.68000001 4291601034
-0.082708985 0.16958316 0.68000001 4287533673
-0.081758693 0.17008194 0.68200004 4283508540
-0.080565132 0.17008194 0.68200004 4281794832
-0.079604328 0.17058071 0.68400002 4280156957
-0.078292646 0.17033133 0.68300003 4281140011
-0.077097334 0.17033133 0.68300003 4282133840
-0.07590203 0.17033133 0.68300003 4282735990
-0.0748161 0.17058071 0.68400002 4283382592
-0.073619045 0.17058071 0.68400002 4281008394
-0.072421983 0.17058071 0.68400002 4278715411
-0.071224928 0.17058071 0.68400002 4279109917
-0.070027873 0.17058071 0.68400002 4279503134
-0.06903208 0.17107949 0.68600005 4279043872
-0.0679304 0.17132889 0.68700004 4278586929
-0.066728093 0.17132889 0.68700004 4281937219
-0.065716535 0.17182764 0.68900001 4285294172
-0.064510733 0.17182764 0.68900001 4284841845
-0.063396804 0.17207704 0.69000006 4284439153
-0.062189247 0.17207704 0.69000006 4284047214
-0.060981687 0.17207704 0.69000006 4283644733
-0.059860758 0.17232643 0.69100004 4281140493
-0.058821205 0.1728252 0.69300002 4278650131
-0.057691526 0.17307459 0.69400001 4278979098
-0.056476969 0.17307459 0.69400001 4279306522
-0.055342045 0.17332397 0.69500005 4279306522
-0.054281488 0.17382275 0.69700003 4279306521
-0.053061683 0.17382275 0.69700003 4279306521
-0.051841874 0.17382275 0.69700003 4279306264
-0.050694693 0.17407213 0.69800001 4279306520
-0.049614891 0.17457092 0.70000005 4279306777
-0.04845896 0.17482029 0.70100003 4279372570
-0.047366906 0.17531906 0.70300001 4279438619
-0.046399109 0.17631662 0.70700002 4279570717
-0.04522568 0.17656599 0.708 4279766553
-0.044110876 0.17706478 0.71000004 4279504405
-0.043049447 0.17781295 0.71300006 4279241493
-0.041860264 0.17806233 0.71400005 4279306773
-0.04072446 0.17856111 0.71600002 4279372567
-0.039471403 0.17856111 0.71600002 4279570202
-0.038538609 0.18005744 0.72200006 4279833117
-0.037481554 0.18105496 0.72600001 4280161569
-0.036310751 0.18155375 0.72800004 4280556072
-0.035084814 0.18180314 0.72900003 4281149232
-0.033809002 0.18180314 0.72900003 4281807669
-0.032533191 0.18180314 0.72900003 4282202939
-0.15535237 0.17906076 0.71300006 4281411126
-0.15367228 0.17855847 0.71100003 4281146929
-0.15221359 0.17830734 0.71000004 4280949550
-0.15054575 0.17780505 0.708 4281146668
-0.14846316 0.17680052 0.70400006 4281409068
-0.14702195 0.17654938 0.70300001 4281014573
-0.14579165 0.17654938 0.70300001 4280620587
-0.14415006 0.1760471 0.70100003 4280356905
-0.14292327 0.1760471 0.70100003 4280159528
-0.14169645 0.1760471 0.70100003 4280093735
-0.14026926 0.17579597 0.70000005 4280028455
-0.1384483 0.17504255 0.69700003 4280225063
-0.13683473 0.17454028 0.69500005 4280421926
-0.13542327 0.17428915 0.69400001 4280422182
-0.13401532 0.17403801 0.69300002 4280422699
-0.13241926 0.17353573 0.69100004 4280224561
-0.13102007 0.17328461 0.69000006 4280026156
-0.12981251 0.17328461 0.69000006 4280884775
-0.12841856 0.17303345 0.68900001 4281748052
-0.12684348 0.17253119 0.68700004 4285098882
-0.12564118 0.17253119 0.68700004 4288445829
-0.12443887 0.17253119 0.68700004 4287597449
-0.12323656 0.17253119 0.68700004 4286801228
-0.12185662 0.17228006 0.68600005 4282786064
-0.12065607 0.17228006 0.68600005 4278846751
-0.11945551 0.17228006 0.68600005 4279569198
-0.11791018 0.17177777 0.68400002 4280355370
-0.11671312 0.17177777 0.68400002 4280224806
-0.1151783 0.1712755 0.68200004 4280094243
-0.11398474 0.1712755 0.68200004 4279633952
-0.11279119 0.1712755 0.68200004 4279239984
-0.11159763 0.1712755 0.68200004 4281479489
-0.1100803 0.17077322 0.68000001 4283782983
-0.10889024 0.17077322 0.68000001 4282463565
-0.10770018 0.17077322 0.68000001 4281208128
-0.10651013 0.17077322 0.68000001 4280945203
-0.10532007 0.17077322 0.68000001 4280682279
-0.10413001 0.17077322 0.68000001 4279501340
-0.10293996 0.17077322 0.68000001 4278321476
-0.1017499 0.17077322 0.68000001 4283651948
-0.10055984 0.17077322 0.68000001 4288985231
-0.099369779 0.17077322 0.68000001 4286945203
-0.098035343 0.17052208 0.67900002 4284897119
-0.096847035 0.17052208 0.67900002 4281996811
-0.095658727 0.17052208 0.67900002 4279108113
-0.094470426 0.17052208 0.67900002 4280361495
-0.093282118 0.17052208 0.67900002 4281680207
-0.09209381 0.17052208 0.67900002 4284177288
-0.091039382 0.17077322 0.68000001 4286680216
-0.089717194 0.17052208 0.67900002 4286352808
-0.088528886 0.17052208 0.67900002 4286091679
-0.087340578 0.17052208 0.67900002 4286154134
-0.08615227 0.17052208 0.67900002 4286292132
-0.085089095 0.17077322 0.68000001 4286415027
-0.083899036 0.17077322 0.68000001 4286551183
-0.082708985 0.17077322 0.68000001 4284829548
-0.081518926 0.17077322 0.68000001 4283108419
-0.080565132 0.1712755 0.68200004 4281928475
-0.079371579 0.1712755 0.68200004 4280812847
-0.078178018 0.1712755 0.68200004 4281408323
-0.077097334 0.17152664 0.68300003 4282001483
-0.07590203 0.17152664 0.68300003 4282203987
-0.074706718 0.17152664 0.68300003 4282464817
-0.073619045 0.17177777 0.68400002 4280881167
-0.072421983 0.17177777 0.68400002 4279304982
-0.071224928 0.17177777 0.68400002 4279306014
-0.070027873 0.17177777 0.68400002 4279372324
-0.06903208 0.17228006 0.68600005 4279241003
-0.067831516 0.17228006 0.68600005 4279109163
-0.066728093 0.17253119 0.68700004 4280952108
-0.065716535 0.17303345 0.68900001 4282800967
-0.064510733 0.17303345 0.68900001 4282468194
-0.063396804 0.17328461 0.69000006 4282133343
-0.062189247 0.17328461 0.69000006 4281806684
-0.060981687 0.17328461 0.69000006 4281477172
-0.059860758 0.17353573 0.69100004 4280225292
-0.058651455 0.17353573 0.69100004 4278977811
-0.057608396 0.17403801 0.69300002 4279044122
-0.056476969 0.17428915 0.69400001 4279109914
-0.055342045 0.17454028 0.69500005 4279175450
-0.054281488 0.17504255 0.69700003 4279306520
-0.053061683 0.17504255 0.69700003 4279306263
-0.051916249 0.17529368 0.69800001 4279306008
-0.050839949 0.17579597 0.70000005 4279306265
-0.049614891 0.17579597 0.70000005 4279372313
-0.04845896 0.1760471 0.70100003 4279438105
-0.047366906 0.17654938 0.70300001 4279569945
-0.046267856 0.17705165 0.70500004 4279569946
-0.045161799 0.17755394 0.70700002 4279569687
-0.043986619 0.17780505 0.708 4279372820
-0.043049447 0.17906076 0.71300006 4279241239
-0.041860264 0.17931189 0.71400005 4279306522
-0.04072446 0.17981416 0.71600002 4279372571
-0.039361145 0.17931189 0.71400005 4279570461
-0.038431853 0.18081872 0.72000003 4279768352
-0.037481554 0.18232553 0.72600001 4280226595
-0.036360625 0.18307894 0.72900003 4280750633
-0.035084814 0.18307894 0.72900003 4281215023
-0.033809002 0.18307894 0.72900003 4281743414
-0.15491658 0.17980278 0.71100003 4281410358
-0.15367228 0.17980278 0.71100003 4281080368
-0.15178481 0.17904411 0.708 4280752943
-0.15033312 0.17879122 0.70700002 4280950318
-0.14867404 0.17828546 0.70500004 4281212461
-0.1472311 0.17803258 0.70400006 4280884781
-0.14579165 0.17777969 0.70300001 4280621099
-0.14456134 0.17777969 0.70300001 4280357673
-0.14292327 0.17727391 0.70100003 4280159528
-0.14169645 0.17727391 0.70100003 4279962151
-0.14026926 0.17702104 0.70000005 4279765799
-0.13864692 0.17651525 0.69800001 4280028455
-0.13683473 0.17575659 0.69500005 4280356134
-0.13542327 0.17550369 0.69400001 4280225317
-0.13401532 0.17525081 0.69300002 4280160041
-0.13241926 0.17474505 0.69100004 4280357166
-0.13102007 0.17449217 0.69000006 4280617254
-0.12981251 0.17449217 0.69000006 4280025887
-0.12860495 0.17449217 0.69000006 4279446356
-0.12721275 0.17423926 0.68900001 4284506505
-0.12564118 0.1737335 0.68700004 4289567628
-0.12443887 0.1737335 0.68700004 4289187471
-0.12323656 0.1737335 0.68700004 4288837971
-0.12185662 0.17348062 0.68600005 4283566615
-0.12065607 0.17348062 0.68600005 4278323234
-0.11945551 0.17348062 0.68600005 4279374126
-0.11791018 0.17297484 0.68400002 4280487210
-0.1165425 0.17272195 0.68300003 4280290854
-0.1151783 0.17246905 0.68200004 4280159266
-0.11398474 0.17246905 0.68200004 4279634719
-0.11279119 0.17246905 0.68200004 4279110443
-0.11127036 0.17196327 0.68000001 4281013047
-0.1100803 0.17196327 0.68000001 4282924107
-0.10889024 0.17196327 0.68000001 4282604128
-0.10770018 0.17196327 0.68000001 4282265159
-0.10651013 0.17196327 0.68000001 4281403695
-0.10532007 0.17196327 0.68000001 4280550945
-0.10413001 0.17196327 0.68000001 4279435539
-0.10293996 0.17196327 0.68000001 4278329153
-0.1017499 0.17196327 0.68000001 4283726704
-0.10055984 0.17196327 0.68000001 4289108603
-0.099369779 0.17196327 0.68000001 4286224519
-0.098179728 0.17196327 0.68000001 4283382859
-0.096847035 0.17171039 0.67900002 4281598480
-0.095658727 0.17171039 0.67900002 4279831067
-0.094470426 0.17171039 0.67900002 4279111206
-0.093282118 0.17171039 0.67900002 4278461503
-0.09209381 0.17171039 0.67900002 4282136664
-0.090905502 0.17171039 0.67900002 4285819765
-0.089717194 0.17171039 0.67900002 4286094483
-0.088528886 0.17171039 0.67900002 4286343544
-0.087340578 0.17171039 0.67900002 4285096030
-0.08615227 0.17171039 0.67900002 4283842915
-0.085089095 0.17196327 0.68000001 4282647656
-0.083899036 0.17196327 0.68000001 4281477730
-0.082708985 0.17196327 0.68000001 4282059357
-0.081518926 0.17196327 0.68000001 4282719046
-0.080328867 0.17196327 0.68000001 4282129967
-0.079371579 0.17246905 0.68200004 4281541175
-0.078178018 0.17246905 0.68200004 4281679424
-0.076984458 0.17246905 0.68200004 4281874243
-0.075790904 0.17246905 0.68200004 4281679174
-0.074706718 0.17272195 0.68300003 4281542961
-0.073511414 0.17272195 0.68300003 4280681501
-0.072421983 0.17297484 0.68400002 4279895067
-0.071224928 0.17297484 0.68400002 4279568154
-0.070027873 0.17297484 0.68400002 4279306784
-0.06903208 0.17348062 0.68600005 4279504423
-0.067831516 0.17348062 0.68600005 4279700521
-0.066728093 0.1737335 0.68700004 4279962156
-0.065716535 0.17423926 0.68900001 4280295734
-0.064604364 0.17449217 0.69000006 4280031040
-0.063396804 0.17449217 0.69000006 4279834430
-0.062189247 0.17449217 0.69000006 4279569981
-0.060981687 0.17449217 0.69000006 4279374375
-0.059860758 0.17474505 0.69100004 4279306514
-0.058651455 0.17474505 0.69100004 4279306261
-0.057608396 0.17525081 0.69300002 4279110425
-0.056476969 0.17550369 0.69400001 4278979095
-0.055342045 0.17575659 0.69500005 4279110678
-0.054281488 0.17626236 0.69700003 4279306517
-0.053137809 0.17651525 0.69800001 4279306517
-0.051916249 0.17651525 0.69800001 4279306263
-0.050839949 0.17702104 0.70000005 4279372057
-0.049685769 0.17727391 0.70100003 4279437849
-0.04845896 0.17727391 0.70100003 4279569433
-0.047366906 0.17777969 0.70300001 4279766297
-0.046267856 0.17828546 0.70500004 4279569945
-0.045161799 0.17879122 0.70700002 4279373080
-0.043986619 0.17904411 0.708 4279307287
-0.043049447 0.18030857 0.71300006 4279306520
-0.041801639 0.18030857 0.71300006 4279372058
-0.04072446 0.18106723 0.71600002 4279438362
-0.039636783 0.18182589 0.71900004 4279570714
-0.038431853 0.18207876 0.72000003 4279702302
-0.037429929 0.1833432 0.72500002 4280291875
-0.036310751 0.18410186 0.72800004 4280949545
-0.035036687 0.18410186 0.72800004 4281348400
-0.15221359 0.18079247 0.71000004 4280884272
-0.15054575 0.18028317 0.708 4281015856
-0.1490958 0.18002854 0.70700002 4281147439
-0.1472311 0.17926463 0.70400006 4281016110
-0.14579165 0.17900999 0.70300001 4280883756
-0.14415006 0.17850073 0.70100003 4280619562
-0.14292327 0.17850073 0.70100003 4280356136
-0.14149432 0.1782461 0.70000005 4280027943
-0.13986848 0.17773682 0.69800001 4279766055
-0.1384483 0.17748217 0.69700003 4279897383
-0.13683473 0.1769729 0.69500005 4280094245
-0.13542327 0.17671825 0.69400001 4280094244
-0.13401532 0.17646362 0.69300002 4280094504
-0.13241926 0.17595436 0.69100004 4280291116
-0.13102007 0.17569973 0.69000006 4280552737
-0.12981251 0.17569973 0.69000006 4279764759
-0.12860495 0.17569973 0.69000006 4279042388
-0.12721275 0.17544508 0.68900001 4283519633
-0.12600695 0.17544508 0.68900001 4288004755
-0.12443887 0.1749358 0.68700004 4288595605
-0.12323656 0.1749358 0.68700004 4289243481
-0.12185662 0.17468116 0.68600005 4283772446
-0.12065607 0.17468116 0.68600005 4278321446
-0.11945551 0.17468116 0.68600005 4279372846
-0.11791018 0.17417189 0.68400002 4280487210
-0.11671312 0.17417189 0.68400002 4280225063
-0.11534718 0.17391725 0.68300003 4280028194
-0.11398474 0.17366262 0.68200004 4279831070
-0.11279119 0.17366262 0.68200004 4279634214
-0.11127036 0.17315334 0.68000001 4280881966
-0.1100803 0.17315334 0.68000001 4282199377
-0.10889024 0.17315334 0.68000001 4282599284
-0.10770018 0.17315334 0.68000001 4282993232
-0.10651013 0.17315334 0.68000001 4281801004
-0.10532007 0.17315334 0.68000001 4280682779
-0.10413001 0.17315334 0.68000001 4279698186
-0.10293996 0.17315334 0.68000001 4278714687
-0.1017499 0.17315334 0.68000001 4282934389
-0.10055984 0.17315334 0.68000001 4287143528
-0.099369779 0.17315334 0.68000001 4284044891
-0.098179728 0.17315334 0.68000001 4281008440
-0.096847035 0.17289869 0.67900002 4280617237
-0.095658727 0.17289869 0.67900002 4280293157
-0.094470426 0.17289869 0.67900002 4279963702
-0.093282118 0.17289869 0.67900002 4279634223
-0.09209381 0.17289869 0.67900002 4281477160
-0.090905502 0.17289869 0.67900002 4283386963
-0.089717194 0.17289869 0.67900002 4283254911
-0.088528886 0.17289869 0.67900002 4283111507
-0.087340578 0.17289869 0.67900002 4282654247
-0.08615227 0.17289869 0.67900002 4282253602
-0.084963962 0.17289869 0.67900002 4282256669
-0.083899036 0.17315334 0.68000001 4282320950
-0.082708985 0.17315334 0.68000001 4283050831
-0.081518926 0.17315334 0.68000001 4283841097
-0.080328867 0.17315334 0.68000001 4282459460
-0.079138808 0.17315334 0.68000001 4281084225
-0.077948757 0.17315334 0.68000001 4281216318
-0.076758698 0.17315334 0.68000001 4281416507
-0.075568639 0.17315334 0.68000001 4281151545
-0.074706718 0.17391725 0.68300003 4280954162
-0.073511414 0.17391725 0.68300003 4280356652
-0.072421983 0.17417189 0.68400002 4279764001
-0.071224928 0.17417189 0.68400002 4279436822
-0.070027873 0.17417189 0.68400002 4279175708
-0.06903208 0.17468116 0.68600005 4279438883
-0.067831516 0.17468116 0.68600005 4279702056
-0.066728093 0.1749358 0.68700004 4280028717
-0.065525778 0.1749358 0.68700004 4280355878
-0.064510733 0.17544508 0.68900001 4280226591
-0.063304923 0.17544508 0.68900001 4280094750
-0.062189247 0.17569973 0.69000006 4279832350
-0.060981687 0.17569973 0.69000006 4279569435
-0.059860758 0.17595436 0.69100004 4279437849
-0.058651455 0.17595436 0.69100004 4279306521
-0.057442144 0.17595436 0.69100004 4279175449
-0.056558348 0.1769729 0.69500005 4279110166
-0.055342045 0.1769729 0.69500005 4279175443
-0.054281488 0.17748217 0.69700003 4279306515
-0.053137809 0.17773682 0.69800001 4279372052
-0.051916249 0.17773682 0.69800001 4279437591
-0.050839949 0.1782461 0.70000005 4279503130
-0.049614891 0.1782461 0.70000005 4279569434
-0.04838983 0.1782461 0.70000005 4279700506
-0.047366906 0.17900999 0.70300001 4279832345
-0.046267856 0.17951928 0.70500004 4279635481
-0.045161799 0.18002854 0.70700002 4279438873
-0.043986619 0.18028317 0.708 4279241498
-0.042928692 0.18104708 0.71100003 4279109402
-0.041684382 0.18104708 0.71100003 4279306522
-0.040553831 0.18155637 0.71300006 4279503896
-0.039306019 0.18155637 0.71300006 4279636247
-0.03811159 0.18181102 0.71400005 4279769117
-0.037326671 0.18410276 0.72300005 4280358180
-0.15242797 0.1822914 0.71100003 4281015087
-0.15097103 0.18203503 0.71000004 4281016366
-0.14930668 0.18152224 0.708 4281082161
-0.1478585 0.18126585 0.70700002 4281083444
-0.14599903 0.18049671 0.70400006 4281146415
-0.14415006 0.17972752 0.70100003 4280881707
-0.14271937 0.17947115 0.70000005 4280618281
-0.14149432 0.17947115 0.70000005 4280158759
-0.13986848 0.17895837 0.69800001 4279766053
-0.1384483 0.17870198 0.69700003 4279766563
-0.13722849 0.17870198 0.69700003 4279832099
-0.13561842 0.1781892 0.69500005 4279898148
-0.13420871 0.17793281 0.69400001 4280029222
-0.13241926 0.17716366 0.69100004 4280291880
-0.13120994 0.17716366 0.69100004 4280553254
-0.12981251 0.17690727 0.69000006 4279569700
-0.12860495 0.17690727 0.69000006 4278652471
-0.12721275 0.17665088 0.68900001 4282525514
-0.12600695 0.17665088 0.68900001 4286482550
-0.12443887 0.17613812 0.68700004 4288078243
-0.12323656 0.17613812 0.68700004 4289622877
-0.12203426 0.17613812 0.68700004 4283958552
-0.12065607 0.17588173 0.68600005 4278323492
-0.11945551 0.17588173 0.68600005 4279439664
-0.11791018 0.17536893 0.68400002 4280553259
-0.11671312 0.17536893 0.68400002 4280225319
-0.11551607 0.17536893 0.68400002 4279896868
-0.11398474 0.17485619 0.68200004 4280027682
-0.11279119 0.17485619 0.68200004 4280158249
-0.11127036 0.17434339 0.68000001 4280812848
-0.1100803 0.17434339 0.68000001 4281475651
-0.10889024 0.17434339 0.68000001 4282600791
-0.10770018 0.17434339 0.68000001 4283710020
-0.10651013 0.17434339 0.68000001 4282256434
-0.10532007 0.17434339 0.68000001 4280879136
-0.10397688 0.174087 0.67900002 4279959822
-0.10278857 0.174087 0.67900002 4279115576
-0.10160027 0.174087 0.67900002 4282153059
-0.10041197 0.174087 0.67900002 4285159506
-0.099223658 0.174087 0.67900002 4281868865
-0.098035343 0.174087 0.67900002 4278652978
-0.096847035 0.174087 0.67900002 4279700003
-0.095658727 0.174087 0.67900002 4280815658
-0.094470426 0.174087 0.67900002 4280816434
-0.093282118 0.174087 0.67900002 4280881201
-0.09209381 0.174087 0.67900002 4280882481
-0.090905502 0.174087 0.67900002 4280953413
-0.089717194 0.174087 0.67900002 4280427098
-0.088528886 0.174087 0.67900002 4279964998
-0.087340578 0.174087 0.67900002 4280353330
-0.086279154 0.17434339 0.68000001 4280750384
-0.084963962 0.174087 0.67900002 4282001967
-0.083899036 0.17434339 0.68000001 4283250246
-0.082708985 0.17434339 0.68000001 4284113757
-0.081518926 0.17434339 0.68000001 4284955210
-0.080328867 0.17434339 0.68000001 4282783032
-0.079138808 0.17434339 0.68000001 4280620856
-0.077948757 0.17434339 0.68000001 4280816440
-0.076758698 0.17434339 0.68000001 4281015606
-0.075790904 0.17485619 0.68200004 4280688181
-0.074706718 0.17511256 0.68300003 4280424494
-0.073511414 0.17511256 0.68300003 4280027175
-0.072421983 0.17536893 0.68400002 4279633440
-0.071224928 0.17536893 0.68400002 4279371290
-0.070027873 0.17536893 0.68400002 4279110174
-0.06903208 0.17588173 0.68600005 4279374114
-0.067831516 0.17588173 0.68600005 4279702054
-0.066728093 0.17613812 0.68700004 4280029994
-0.065525778 0.17613812 0.68700004 4280423209
-0.06432347 0.17613812 0.68700004 4280424744
-0.063304923 0.17665088 0.68900001 4280423717
-0.062099118 0.17665088 0.68900001 4280096034
-0.060981687 0.17690727 0.69000006 4279766558
-0.059774131 0.17690727 0.69000006 4279569178
-0.058566574 0.17690727 0.69000006 4279372057
-0.057442144 0.17716366 0.69100004 4279306521
-0.056558348 0.1781892 0.69500005 4279306517
-0.055501297 0.17870198 0.69700003 4279306514
-0.054281488 0.17870198 0.69700003 4279306516
-0.053137809 0.17895837 0.69800001 4279437590
-0.051916249 0.17895837 0.69800001 4279634200
-0.050839949 0.17947115 0.70000005 4279699738
-0.049614891 0.17947115 0.70000005 4279765531
-0.04838983 0.17947115 0.70000005 4279831069
-0.047434285 0.18049671 0.70400006 4279962907
-0.046399109 0.18126585 0.70700002 4279766809
-0.045161799 0.18126585 0.70700002 4279569687
-0.044110876 0.18203503 0.71000004 4279241749
-0.042928692 0.1822914 0.71100003 4278913560
-0.041684382 0.1822914 0.71100003 4279241243
-0.040610708 0.18306057 0.71400005 4279569946
-0.039361145 0.18306057 0.71400005 4279702042
-0.03811159 0.18306057 0.71400005 4279899167
-0.15410455 0.18405201 0.71300006 4281277745
-0.15285674 0.18405201 0.71300006 4280621358
-0.15118366 0.18353571 0.71100003 4280818732
-0.14930668 0.1827613 0.708 4281081651
-0.14744022 0.18198688 0.70500004 4281212986
-0.14599903 0.18172877 0.70400006 4281409331
-0.14415006 0.18095435 0.70100003 4281013548
-0.14271937 0.1806962 0.70000005 4280684073
-0.14109005 0.18017992 0.69800001 4280290343
-0.13986848 0.18017992 0.69800001 4279962915
-0.1384483 0.17992179 0.69700003 4279831840
-0.13683473 0.17940551 0.69500005 4279766562
-0.13561842 0.17940551 0.69500005 4279832356
-0.13420871 0.17914736 0.69400001 4279964196
-0.13241926 0.17837298 0.69100004 4280160548
-0.13120994 0.17837298 0.69100004 4280357162
-0.12981251 0.17811483 0.69000006 4279766321
-0.12860495 0.17811483 0.69000006 4279239450
-0.12739739 0.17811483 0.69000006 4281016836
-0.12618983 0.17811483 0.69000006 4282866011
-0.12480113 0.17785668 0.68900001 4283588274
-0.12323656 0.17734042 0.68700004 4284366434
-0.12203426 0.17734042 0.68700004 4282062610
-0.12065607 0.17708229 0.68600005 4279766562
-0.11945551 0.17708229 0.68600005 4280160563
-0.11791018 0.17656599 0.68400002 4280619309
-0.11671312 0.17656599 0.68400002 4280356392
-0.11551607 0.17656599 0.68400002 4280093479
-0.11398474 0.17604974 0.68200004 4279962151
-0.11279119 0.17604974 0.68200004 4279896620
-0.11127036 0.17553346 0.68000001 4280485938
-0.1100803 0.17553346 0.68000001 4281076022
-0.10889024 0.17553346 0.68000001 4281871418
-0.1075418 0.17527531 0.67900002 4282665017
-0.10651013 0.17553346 0.68000001 4281868088
-0.10532007 0.17553346 0.68000001 4281142821
-0.10413001 0.17553346 0.68000001 4280485651
-0.10293996 0.17553346 0.68000001 4279895090
-0.1017499 0.17553346 0.68000001 4281283154
-0.10041197 0.17527531 0.67900002 4282657084
-0.099223658 0.17527531 0.67900002 4281146407
-0.098035343 0.17527531 0.67900002 4279702316
-0.096847035 0.17527531 0.67900002 4280159793
-0.095517851 0.17501718 0.67800003 4280618544
-0.094331294 0.17501718 0.67800003 4280553263
-0.093144737 0.17501718 0.67800003 4280553525
-0.09209381 0.17527531 0.67900002 4280752187
-0.090905502 0.17527531 0.67900002 4280953144
-0.089717194 0.17527531 0.67900002 4280688949
-0.088528886 0.17527531 0.67900002 4280425017
-0.087469205 0.17553346 0.68000001 4280619582
-0.086279154 0.17553346 0.68000001 4280817471
-0.085089095 0.17553346 0.68000001 4281542209
-0.083899036 0.17553346 0.68000001 4282336342
-0.082708985 0.17553346 0.68000001 4282399595
-0.081518926 0.17553346 0.68000001 4282529611
-0.080328867 0.17553346 0.68000001 4281473068
-0.079138808 0.17553346 0.68000001 4280486959
-0.077948757 0.17553346 0.68000001 4280487474
-0.076984458 0.17604974 0.68200004 4280552497
-0.075790904 0.17604974 0.68200004 4280422961
-0.074706718 0.17630787 0.68300003 4280356137
-0.073511414 0.17630787 0.68300003 4280027682
-0.072421983 0.17656599 0.68400002 4279699232
-0.071224928 0.17656599 0.68400002 4279437086
-0.070027873 0.17656599 0.68400002 4279241504
-0.06903208 0.17708229 0.68600005 4279439138
-0.067831516 0.17708229 0.68600005 4279702565
-0.06663096 0.17708229 0.68600005 4280030504
-0.065525778 0.17734042 0.68700004 4280358700
-0.06432347 0.17734042 0.68700004 4280358705
-0.063304923 0.17785668 0.68900001 4280358955
-0.062099118 0.17785668 0.68900001 4280161062
-0.060981687 0.17811483 0.69000006 4279963169
-0.059860758 0.17837298 0.69100004 4279700252
-0.058566574 0.17811483 0.69000006 4279437850
-0.057442144 0.17837298 0.69100004 4279437337
-0.056558348 0.17940551 0.69500005 4279502869
-0.055342045 0.17940551 0.69500005 4279306258
-0.054281488 0.17992179 0.69700003 4279175445
-0.053061683 0.17992179 0.69700003 4279240729
-0.051841874 0.17992179 0.69700003 4279372057
-0.050839949 0.1806962 0.70000005 4279503130
-0.049614891 0.1806962 0.70000005 4279634461
-0.04838983 0.1806962 0.70000005 4279700512
-0.047434285 0.18172877 0.70400006 4279832604
-0.046399109 0.18250316 0.70700002 4279569945
-0.045161799 0.18250316 0.70700002 4279373333
-0.044110876 0.18327758 0.71000004 4279241745
-0.042928692 0.18353571 0.71100003 4279110678
-0.041801639 0.18405201 0.71300006 4279307292
-0.04072446 0.18482639 0.71600002 4279570460
-0.039471403 0.18482639 0.71600002 4279702045
-0.038591985 0.18663338 0.72300005 4279899426
-0.15535237 0.18529981 0.71300006 4282002746
-0.15367228 0.18478003 0.71100003 4281145653
-0.15242797 0.18478003 0.71100003 4280293681
-0.15160894 0.18529981 0.71300006 4280686893
-0.14930668 0.18400036 0.708 4281080625
-0.1478585 0.18374047 0.70700002 4281409077
-0.14599903 0.18296082 0.70400006 4281736241
-0.14415006 0.18218115 0.70100003 4281211181
-0.14271937 0.18192126 0.70000005 4280750378
-0.1408879 0.1811416 0.69700003 4280421416
-0.13966811 0.1811416 0.69700003 4280159267
-0.1384483 0.1811416 0.69700003 4279963167
-0.13683473 0.18062182 0.69500005 4279766561
-0.13561842 0.18062182 0.69500005 4279832355
-0.13420871 0.18036193 0.69400001 4279963683
-0.13280252 0.18010204 0.69300002 4280029476
-0.13120994 0.17958228 0.69100004 4280160552
-0.12981251 0.17932241 0.69000006 4280029996
-0.12860495 0.17932241 0.69000006 4279896867
-0.12721275 0.17906249 0.68900001 4279567642
-0.12600695 0.17906249 0.68900001 4279310914
-0.12443887 0.17854273 0.68700004 4279239019
-0.12323656 0.17854273 0.68700004 4279179079
-0.12185662 0.17828284 0.68600005 4280159779
-0.12065607 0.17828284 0.68600005 4281209642
-0.11945551 0.17828284 0.68600005 4280948786
-0.11791018 0.17776306 0.68400002 4280685102
-0.11671312 0.17776306 0.68400002 4280487466
-0.11551607 0.17776306 0.68400002 4280290342
-0.11398474 0.17724329 0.68200004 4279962403
-0.11279119 0.17724329 0.68200004 4279700265
-0.11127036 0.17672351 0.68000001 4280224303
-0.1100803 0.17672351 0.68000001 4280749107
-0.10889024 0.17672351 0.68000001 4281210167
-0.10770018 0.17672351 0.68000001 4281672503
-0.10651013 0.17672351 0.68000001 4281539383
-0.10532007 0.17672351 0.68000001 4281406258
-0.10413001 0.17672351 0.68000001 4281011246
-0.10293996 0.17672351 0.68000001 4280685627
-0.1017499 0.17672351 0.68000001 4280427848
-0.10041197 0.17646362 0.67900002 4280164154
-0.099223658 0.17646362 0.67900002 4280423724
-0.098035343 0.17646362 0.67900002 4280750637
-0.096847035 0.17646362 0.67900002 4280619310
-0.095517851 0.17620374 0.67800003 4280487467
-0.094331294 0.17620374 0.67800003 4280356137
-0.093144737 0.17620374 0.67800003 4280225838
-0.09209381 0.17646362 0.67900002 4280554804
-0.090905502 0.17646362 0.67900002 4280949812
-0.089717194 0.17646362 0.67900002 4280885300
-0.088528886 0.17646362 0.67900002 4280883510
-0.087340578 0.17646362 0.67900002 4280883257
-0.086279154 0.17672351 0.68000001 4280948282
-0.085089095 0.17672351 0.68000001 4281145147
-0.083899036 0.17672351 0.68000001 4281409347
-0.082708985 0.17672351 0.68000001 4280749899
-0.081518926 0.17672351 0.68000001 4280161851
-0.080328867 0.17672351 0.68000001 4280289836
-0.079138808 0.17672351 0.68000001 4280421164
-0.078178018 0.17724329 0.68200004 4280290605
-0.076984458 0.17724329 0.68200004 4280159788
-0.075790904 0.17724329 0.68200004 4280227116
-0.074706718 0.17750318 0.68300003 4280291111
-0.073619045 0.17776306 0.68400002 4280028450
-0.072421983 0.17776306 0.68400002 4279830300
-0.071224928 0.17776306 0.68400002 4279633175
-0.070232637 0.17828284 0.68600005 4279437852
-0.06903208 0.17828284 0.68600005 4279569953
-0.067831516 0.17828284 0.68600005 4279702052
-0.06663096 0.17828284 0.68600005 4280031015
-0.065525778 0.17854273 0.68700004 4280358442
-0.06432347 0.17854273 0.68700004 4280358446
-0.063304923 0.17906249 0.68900001 4280357929
-0.062099118 0.17906249 0.68900001 4280226084
-0.060981687 0.17932241 0.69000006 4280159775
-0.059860758 0.17958228 0.69100004 4279831579
-0.058651455 0.17958228 0.69100004 4279503129
-0.057608396 0.18010204 0.69300002 4279633687
-0.056476969 0.18036193 0.69400001 4279765013
-0.055342045 0.18062182 0.69500005 4279437843
-0.054125734 0.18062182 0.69500005 4279109653
-0.053061683 0.1811416 0.69700003 4279109400
-0.051841874 0.1811416 0.69700003 4279109656
-0.050694693 0.18140148 0.69800001 4279306521
-0.049614891 0.18192126 0.70000005 4279568924
-0.04845896 0.18218115 0.70100003 4279634975
-0.047366906 0.18270092 0.70300001 4279766299
-0.046399109 0.18374047 0.70700002 4279504152
-0.04522568 0.18400036 0.708 4279241749
-0.044110876 0.18452014 0.71000004 4279241746
-0.042928692 0.18478003 0.71100003 4279307029
-0.041684382 0.18478003 0.71100003 4279438616
-0.040610708 0.18555969 0.71400005 4279570201
-0.039361145 0.18555969 0.71400005 4279702043
-0.15535237 0.18654761 0.71300006 4282005565
-0.15367228 0.18602434 0.71100003 4281345338
-0.15242797 0.18602434 0.71100003 4280752692
-0.15160894 0.18654761 0.71300006 4280883502
-0.14972846 0.1857627 0.71000004 4281080367
-0.14806762 0.18523942 0.708 4281277744
-0.14620642 0.18445452 0.70500004 4281474607
-0.14415006 0.18340796 0.70100003 4281146415
-0.14271937 0.18314633 0.70000005 4280882476
-0.14109005 0.18262304 0.69800001 4280553513
-0.13966811 0.18236141 0.69700003 4280224548
-0.1384483 0.18236141 0.69700003 4279962655
-0.13683473 0.18183814 0.69500005 4279766816
-0.13561842 0.18183814 0.69500005 4279832354
-0.13420871 0.18157649 0.69400001 4279898403
-0.13241926 0.18079159 0.69100004 4280029220
-0.13120994 0.18079159 0.69100004 4280226341
-0.12981251 0.18052995 0.69000006 4280160807
-0.12860495 0.18052995 0.69000006 4280095275
-0.12721275 0.1802683 0.68900001 4280094256
-0.12600695 0.1802683 0.68900001 4280093226
-0.12443887 0.17974503 0.68700004 4280093732
-0.12323656 0.17974503 0.68700004 4280095020
-0.12203426 0.17974503 0.68700004 4280554805
-0.12065607 0.1794834 0.68600005 4281014835
-0.11945551 0.1794834 0.68600005 4280882737
-0.11791018 0.17896011 0.68400002 4280750382
-0.11671312 0.17896011 0.68400002 4280553260
-0.11551607 0.17896011 0.68400002 4280356389
-0.11398474 0.17843685 0.68200004 4280093727
-0.11279119 0.17843685 0.68200004 4279897637
-0.11127036 0.17791356 0.68000001 4280027948
-0.1100803 0.17791356 0.68000001 4280158768
-0.10889024 0.17791356 0.68000001 4280750389
-0.10770018 0.17791356 0.68000001 4281341493
-0.10651013 0.17791356 0.68000001 4281473078
-0.10532007 0.17791356 0.68000001 4281604160
-0.10413001 0.17791356 0.68000001 4281408330
-0.10293996 0.17791356 0.68000001 4281278020
-0.1017499 0.17791356 0.68000001 4280753727
-0.10041197 0.17765194 0.67900002 4280228152
-0.099223658 0.17765194 0.67900002 4280423474
-0.098179728 0.17791356 0.68000001 4280684847
-0.096847035 0.17765194 0.67900002 4280487980
-0.095658727 0.17765194 0.67900002 4280356391
-0.094470426 0.17765194 0.67900002 4280225571
-0.093282118 0.17765194 0.67900002 4280095016
-0.09209381 0.17765194 0.67900002 4280422702
-0.090905502 0.17765194 0.67900002 4280751153
-0.089717194 0.17765194 0.67900002 4280751924
-0.088528886 0.17765194 0.67900002 4280751412
-0.087340578 0.17765194 0.67900002 4280751668
-0.08615227 0.17765194 0.67900002 4280817204
-0.085089095 0.17791356 0.68000001 4280948277
-0.083899036 0.17791356 0.68000001 4281078576
-0.082708985 0.17791356 0.68000001 4280684588
-0.081518926 0.17791356 0.68000001 4280289836
-0.080328867 0.17791356 0.68000001 4280290348
-0.079371579 0.17843685 0.68200004 4280290602
-0.078178018 0.17843685 0.68200004 4280159529
-0.076984458 0.17843685 0.68200004 4280093736
-0.07590203 0.17869848 0.68300003 4280356903
-0.074706718 0.17869848 0.68300003 4280618788
-0.073619045 0.17896011 0.68400002 4280027938
-0.072421983 0.17896011 0.68400002 4279436569
-0.071224928 0.17896011 0.68400002 4279502352
-0.070027873 0.17896011 0.68400002 4279569176
-0.06903208 0.1794834 0.68600005 4279701024
-0.067831516 0.1794834 0.68600005 4279832867
-0.066728093 0.17974503 0.68700004 4280030247
-0.065716535 0.1802683 0.68900001 4280292649
-0.064510733 0.1802683 0.68900001 4280226860
-0.063396804 0.18052995 0.69000006 4280226855
-0.062099118 0.1802683 0.68900001 4280029218
-0.060981687 0.18052995 0.69000006 4279832094
-0.059860758 0.18079159 0.69100004 4279569178
-0.058651455 0.18079159 0.69100004 4279372055
-0.057608396 0.18131486 0.69300002 4279437333
-0.056476969 0.18157649 0.69400001 4279568404
-0.055342045 0.18183814 0.69500005 4279306260
-0.054281488 0.18236141 0.69700003 4279109397
-0.053061683 0.18236141 0.69700003 4279109399
-0.051841874 0.18236141 0.69700003 4279174936
-0.050694693 0.18262304 0.69800001 4279372057
-0.049614891 0.18314633 0.70000005 4279569179
-0.04845896 0.18340796 0.70100003 4279569438
-0.047366906 0.18393123 0.70300001 4279635226
-0.046399109 0.18497778 0.70700002 4279503895
-0.04522568 0.18523942 0.708 4279372821
-0.044110876 0.1857627 0.71000004 4279372563
-0.042928692 0.18602434 0.71100003 4279372563
-0.041684382 0.18602434 0.71100003 4279438868
-0.040610708 0.18680924 0.71400005 4279570711
-0.039361145 0.18680924 0.71400005 4279701786
-0.15491658 0.18726864 0.71100003 4282070844
-0.15410455 0.18779543 0.71300006 4281609271
-0.15285674 0.18779543 0.71300006 4281212978
-0.15160894 0.18779543 0.71300006 4281145390
-0.14993936 0.18726864 0.71100003 4281080366
-0.14869504 0.18726864 0.71100003 4281147439
-0.14682858 0.18647848 0.708 4281213233
-0.14456134 0.18516153 0.70300001 4281148980
-0.14271937 0.18437138 0.70000005 4281080879
-0.14109005 0.18384461 0.69800001 4280686122
-0.13966811 0.18358122 0.69700003 4280290851
-0.1384483 0.18358122 0.69700003 4280027677
-0.13683473 0.18305445 0.69500005 4279831840
-0.13561842 0.18305445 0.69500005 4279832612
-0.13420871 0.18279104 0.69400001 4279898149
-0.13280252 0.18252766 0.69300002 4280094758
-0.13120994 0.18200089 0.69100004 4280291622
-0.12981251 0.18173751 0.69000006 4280292390
-0.12860495 0.18173751 0.69000006 4280357929
-0.12721275 0.18147412 0.68900001 4280621356
-0.12600695 0.18147412 0.68900001 4280947242
-0.12443887 0.18094735 0.68700004 4281013545
-0.12323656 0.18094735 0.68700004 4281079342
-0.12203426 0.18094735 0.68700004 4280950323
-0.12065607 0.18068396 0.68600005 4280883761
-0.11945551 0.18068396 0.68600005 4280817968
-0.11791018 0.18015717 0.68400002 4280816430
-0.11671312 0.18015717 0.68400002 4280619308
-0.11551607 0.18015717 0.68400002 4280487463
-0.11415187 0.17989379 0.68300003 4280290339
-0.11279119 0.1796304 0.68200004 4280159526
-0.11127036 0.17910363 0.68000001 4279831593
-0.1100803 0.17910363 0.68000001 4279569452
-0.10889024 0.17910363 0.68000001 4280291120
-0.10770018 0.17910363 0.68000001 4281078833
-0.10651013 0.17910363 0.68000001 4281473586
-0.10532007 0.17910363 0.68000001 4281867839
-0.10413001 0.17910363 0.68000001 4281870924
-0.10293996 0.17910363 0.68000001 4281933889
-0.1017499 0.17910363 0.68000001 4281081399
-0.10055984 0.17910363 0.68000001 4280292915
-0.099369779 0.17910363 0.68000001 4280489007
-0.098179728 0.17910363 0.68000001 4280684845
-0.096847035 0.17884025 0.67900002 4280422699
-0.095658727 0.17884025 0.67900002 4280226088
-0.094470426 0.17884025 0.67900002 4280095782
-0.093282118 0.17884025 0.67900002 4280029224
-0.09209381 0.17884025 0.67900002 4280290859
-0.090905502 0.17884025 0.67900002 4280553773
-0.089717194 0.17884025 0.67900002 4280554544
-0.088528886 0.17884025 0.67900002 4280620336
-0.087340578 0.17884025 0.67900002 4280621361
-0.08615227 0.17884025 0.67900002 4280686129
-0.085089095 0.17910363 0.68000001 4280687154
-0.083899036 0.17910363 0.68000001 4280751662
-0.082708985 0.17910363 0.68000001 4280555307
-0.081758693 0.1796304 0.68200004 4280422698
-0.080565132 0.1796304 0.68200004 4280291882
-0.079371579 0.1796304 0.68200004 4280159785
-0.078178018 0.1796304 0.68200004 4280094504
-0.076984458 0.1796304 0.68200004 4280028455
-0.075790904 0.1796304 0.68200004 4280488230
-0.074706718 0.17989379 0.68300003 4280945955
-0.073511414 0.17989379 0.68300003 4280027936
-0.072421983 0.18015717 0.68400002 4279109402
-0.071224928 0.18015717 0.68400002 4279436565
-0.070027873 0.18015717 0.68400002 4279765531
-0.06903208 0.18068396 0.68600005 4279832097
-0.067831516 0.18068396 0.68600005 4279963940
-0.06663096 0.18068396 0.68600005 4280095784
-0.065525778 0.18094735 0.68700004 4280292392
-0.06432347 0.18094735 0.68700004 4280226856
-0.063304923 0.18147412 0.68900001 4280160548
-0.062099118 0.18147412 0.68900001 4279832353
-0.060981687 0.18173751 0.69000006 4279569437
-0.059860758 0.18200089 0.69100004 4279437850
-0.058651455 0.18200089 0.69100004 4279306519
-0.057608396 0.18252766 0.69300002 4279306773
-0.056395594 0.18252766 0.69300002 4279371797
-0.055262409 0.18279104 0.69400001 4279240982
-0.054125734 0.18305445 0.69500005 4279109654
-0.053061683 0.18358122 0.69700003 4279175447
-0.051841874 0.18358122 0.69700003 4279306263
-0.050694693 0.18384461 0.69800001 4279437591
-0.049614891 0.18437138 0.70000005 4279569178
-0.04845896 0.18463476 0.70100003 4279569694
-0.047434285 0.18542494 0.70400006 4279569434
-0.046399109 0.18621509 0.70700002 4279569430
-0.04522568 0.18647848 0.708 4279569173
-0.044110876 0.18700525 0.71000004 4279503636
-0.042928692 0.18726864 0.71100003 4279438356
-0.041684382 0.18726864 0.71100003 4279504661
-0.040553831 0.18779543 0.71300006 4279570711
-0.039306019 0.18779543 0.71300006 4279767066
-0.03805821 0.18779543 0.71300006 4279964961
-0.15410455 0.18904324 0.71300006 4281806389
-0.15285674 0.18904324 0.71300006 4281410353
-0.15160894 0.18904324 0.71300006 4281145390
-0.15036112 0.18904324 0.71300006 4280948270
-0.14869504 0.18851297 0.71100003 4281015342
-0.14745073 0.18851297 0.71100003 4281081908
-0.14456134 0.18639185 0.70300001 4281279034
-0.14271937 0.18559645 0.70000005 4281475123
-0.14109005 0.18506616 0.69800001 4280948268
-0.13966811 0.18480103 0.69700003 4280422179
-0.1384483 0.18480103 0.69700003 4280028187
-0.13722849 0.18480103 0.69700003 4279634721
-0.13561842 0.18427077 0.69500005 4279766567
-0.13420871 0.1840056 0.69400001 4279897896
-0.13299416 0.1840056 0.69400001 4279963177
-0.13158971 0.18374047 0.69300002 4280094247
-0.13000064 0.18321021 0.69100004 4280160550
-0.12860495 0.18294507 0.69000006 4280291879
-0.12739739 0.18294507 0.69000006 4280554536
-0.12600695 0.18267992 0.68900001 4280816427
-0.12443887 0.18214965 0.68700004 4280816687
-0.12323656 0.18214965 0.68700004 4280882992
-0.12203426 0.18214965 0.68700004 4280817714
-0.12065607 0.18188451 0.68600005 4280752689
-0.11945551 0.18188451 0.68600005 4280686128
