# .PCD v0.7 - Point Cloud Data file format
VERSION 0.7
FIELDS x y z rgba
SIZE 4 4 4 4
TYPE F F F U
COUNT 1 1 1 1
WIDTH 1054
HEIGHT 1
VIEWPOINT 0 0 0 1 0 0 0
POINTS 1054
DATA ascii
-0.10348336 0.15269223 0.82700002 4280237845
-0.10228281 0.15306149 0.82900006 4280106773
-0.10107524 0.15343076 0.83100003 4280106773
-0.099860691 0.15380004 0.83300006 4280107287
-0.098639131 0.15416931 0.83500004 4280107290
-0.09741056 0.15453857 0.83700001 4280107545
-0.095945746 0.15453857 0.83700001 4280042009
-0.094706684 0.15490784 0.83900005 4280041755
-0.093238369 0.15490784 0.83900005 4280107805
-0.091988802 0.1552771 0.84100002 4280173339
-0.090516984 0.1552771 0.84100002 4280173337
-0.089256927 0.15564638 0.84300005 4280173594
-0.087781608 0.15564638 0.84300005 4280174107
-0.086511046 0.15601565 0.84500003 4280239643
-0.085032217 0.15601565 0.84500003 4280239900
-0.083553396 0.15601565 0.84500003 4280305437
-0.082074583 0.15601565 0.84500003 4280371231
-0.080595754 0.15601565 0.84500003 4280502559
-0.079397827 0.15656954 0.84800005 4280437024
-0.077913754 0.15656954 0.84800005 4280371744
-0.07642968 0.15656954 0.84800005 4280240929
-0.074945606 0.15656954 0.84800005 4280175646
-0.07346154 0.15656954 0.84800005 4280241179
-0.071977466 0.15656954 0.84800005 4280372512
-0.0704934 0.15656954 0.84800005 4280372517
-0.069009326 0.15656954 0.84800005 4280438305
-0.067286365 0.15601565 0.84500003 4280372766
-0.065807544 0.15601565 0.84500003 4280372766
-0.064328723 0.15601565 0.84500003 4280372510
-0.062849902 0.15601565 0.84500003 4280438303
-0.061371081 0.15601565 0.84500003 4280503841
-0.059892256 0.15601565 0.84500003 4280634916
-0.058413442 0.15601565 0.84500003 4280503848
-0.056934617 0.15601565 0.84500003 4280372775
-0.05532454 0.15564638 0.84300005 4280438055
-0.053721461 0.1552771 0.84100002 4280569635
-0.052125387 0.15490784 0.83900005 4280241439
-0.050536308 0.15453857 0.83700001 4279914274
-0.048954234 0.15416931 0.83500004 4280503846
-0.04749291 0.15416931 0.83500004 4281159212
-0.045811079 0.15343076 0.83100003 4281752115
-0.04435676 0.15343076 0.83100003 4282341684
-0.042799186 0.15306149 0.82900006 4282936117
-0.037906826 0.14032176 0.76000005 4283530558
-0.036576763 0.14032176 0.76000005 4283070279
-0.035385828 0.14087565 0.76300001 4282612286
-0.034050517 0.14087565 0.76300001 4282606646
-0.032886706 0.1416142 0.76700002 4282603058
-0.031544391 0.1416142 0.76700002 4282274862
-0.030202078 0.1416142 0.76700002 4281946158
-0.02878451 0.14124493 0.76500005 4281683247
-0.027445698 0.14124493 0.76500005 4281485876
-0.13582404 0.1453795 0.78000003 4283794244
-0.13514851 0.14612503 0.78400004 4283924803
-0.13309391 0.1453795 0.78000003 4283992130
-0.13172884 0.1453795 0.78000003 4284121664
-0.13036378 0.1453795 0.78000003 4283795263
-0.12932949 0.14575227 0.78200006 4283466048
-0.12796092 0.14575227 0.78200006 4283400513
-0.12659235 0.14575227 0.78200006 4283399230
-0.12554404 0.14612503 0.78400004 4283596859
-0.12417198 0.14612503 0.78400004 4283792185
-0.12279992 0.14612503 0.78400004 4283465784
-0.12142785 0.14612503 0.78400004 4283202360
-0.11974952 0.14575227 0.78200006 4283269432
-0.11807819 0.1453795 0.78000003 4283333433
-0.11460865 0.14444758 0.77500004 4283463485
-0.11281393 0.14388843 0.77200001 4283661633
-0.11088534 0.14314289 0.76800001 4283860031
-0.10939864 0.14295651 0.76700002 4284648510
-0.10805632 0.14295651 0.76700002 4285435450
-0.10643575 0.14258374 0.76500005 4285502262
-0.10509694 0.14258374 0.76500005 4285561644
-0.10991667 0.15302125 0.82100004 4280635418
-0.10847985 0.15302125 0.82100004 4279971858
-0.10730379 0.153394 0.82300001 4279318542
-0.10612074 0.15376678 0.82500005 4279842571
-0.10493068 0.15413955 0.82700002 4280432910
-0.10373362 0.15451232 0.82900006 4280171538
-0.10252956 0.15488508 0.83100003 4279909395
-0.10107524 0.15488508 0.83100003 4280040469
-0.10010044 0.15563062 0.83500004 4280172053
-0.098639131 0.15563062 0.83500004 4280106774
-0.09741056 0.15600339 0.83700001 4280041238
-0.096175008 0.15637617 0.83900005 4279975702
-0.094706684 0.15637617 0.83900005 4279910425
-0.093460619 0.15674892 0.84100002 4280042268
-0.092207566 0.15712169 0.84300005 4280172826
-0.090732247 0.15712169 0.84300005 4280107545
-0.08946868 0.15749446 0.84500003 4280042010
-0.087989859 0.15749446 0.84500003 4280042780
-0.086511046 0.15749446 0.84500003 4280108315
-0.085032217 0.15749446 0.84500003 4280108826
-0.083553396 0.15749446 0.84500003 4280174108
-0.082074583 0.15749446 0.84500003 4280239903
-0.080881901 0.15805361 0.84800005 4280370718
-0.079397827 0.15805361 0.84800005 4280371229
-0.078097507 0.15842637 0.85000002 4280371230
-0.07642968 0.15805361 0.84800005 4280240415
-0.074945606 0.15805361 0.84800005 4280175134
-0.07346154 0.15805361 0.84800005 4280175646
-0.071977466 0.15805361 0.84800005 4280240930
-0.0704934 0.15805361 0.84800005 4280306727
-0.069009326 0.15805361 0.84800005 4280372259
-0.067525253 0.15805361 0.84800005 4280306975
-0.066041186 0.15805361 0.84800005 4280241183
-0.064557105 0.15805361 0.84800005 4280306720
-0.062849902 0.15749446 0.84500003 4280438047
-0.061371081 0.15749446 0.84500003 4280569375
-0.059892256 0.15749446 0.84500003 4280765729
-0.058413442 0.15749446 0.84500003 4280438308
-0.056934617 0.15749446 0.84500003 4280175392
-0.05532454 0.15712169 0.84300005 4280437277
-0.05384922 0.15712169 0.84300005 4280764702
-0.05224964 0.15674892 0.84100002 4280239647
-0.050657064 0.15637617 0.83900005 4279717160
-0.049071487 0.15600339 0.83700001 4280438322
-0.04749291 0.15563062 0.83500004 4281230132
-0.045921337 0.15525787 0.83300006 4282546487
-0.04435676 0.15488508 0.83100003 4283856181
-0.042799186 0.15451232 0.82900006 4284120628
-0.037906826 0.14165182 0.76000005 4284380473
-0.036576763 0.14165182 0.76000005 4283460159
-0.035293072 0.14183821 0.76100004 4282606905
-0.034050517 0.14221096 0.76300001 4282472755
-0.032800954 0.14258374 0.76500005 4282340912
-0.031544391 0.14295651 0.76700002 4282144046
-0.030202078 0.14295651 0.76700002 4281946159
-0.028859762 0.14295651 0.76700002 4281552432
-0.027445698 0.14258374 0.76500005 4281157939
-0.14027801 0.14712085 0.78200006 4283333195
-0.13855417 0.14674458 0.78000003 4283597131
-0.13718911 0.14674458 0.78000003 4283926092
-0.13582404 0.14674458 0.78000003 4284123726
-0.13445897 0.14674458 0.78000003 4284320581
-0.13309391 0.14674458 0.78000003 4284517692
-0.13172884 0.14674458 0.78000003 4284714044
-0.13036378 0.14674458 0.78000003 4284780604
-0.12899873 0.14674458 0.78000003 4284845118
-0.12796092 0.14712085 0.78200006 4284713024
-0.12659235 0.14712085 0.78200006 4284580411
-0.12522379 0.14712085 0.78200006 4284515638
-0.12417198 0.1474971 0.78400004 4284514613
-0.12279992 0.1474971 0.78400004 4284383540
-0.12142785 0.1474971 0.78400004 4284317748
-0.12005579 0.1474971 0.78400004 4284516149
-0.11838096 0.14712085 0.78200006 4284713271
-0.1170124 0.14712085 0.78200006 4284253497
-0.11386923 0.14486322 0.77000004 4283857982
-0.1122294 0.14448695 0.76800001 4283858755
-0.11074095 0.14429882 0.76700002 4283925570
-0.10939864 0.14429882 0.76700002 4284319297
-0.10777457 0.14392255 0.76500005 4284712769
-0.10643575 0.14392255 0.76500005 4284780097
-0.10509694 0.14392255 0.76500005 4284914749
-0.10375812 0.14392255 0.76500005 4283925817
-0.10900837 0.15521061 0.82500005 4282473234
-0.10756456 0.15521061 0.82500005 4282072842
-0.106378 0.15558687 0.82700002 4281089795
-0.10518444 0.15596314 0.82900006 4280169481
-0.10373362 0.15596314 0.82900006 4279776528
-0.10252956 0.15633941 0.83100003 4279384594
-0.10131851 0.15671568 0.83300006 4279515157
-0.10010044 0.15709195 0.83500004 4279647764
-0.098875389 0.1574682 0.83700001 4279646995
-0.09741056 0.1574682 0.83700001 4279647507
-0.096175008 0.15784448 0.83900005 4279778324
-0.094706684 0.15784448 0.83900005 4279910168
-0.093460619 0.15822074 0.84100002 4279975452
-0.092207566 0.15859702 0.84300005 4280040987
-0.090732247 0.15859702 0.84300005 4279975450
-0.08946868 0.15897328 0.84500003 4279975708
-0.087989859 0.15897328 0.84500003 4279910686
-0.086511046 0.15897328 0.84500003 4279911195
-0.085032217 0.15897328 0.84500003 4279976729
-0.083850041 0.15953769 0.84800005 4280042268
-0.082365967 0.15953769 0.84800005 4280173344
-0.080881901 0.15953769 0.84800005 4280304413
-0.079397827 0.15953769 0.84800005 4280239386
-0.078097507 0.15991394 0.85000002 4280239900
-0.076609939 0.15991394 0.85000002 4280108830
-0.075122371 0.15991394 0.85000002 4280043808
-0.073634796 0.15991394 0.85000002 4280174882
-0.071977466 0.15953769 0.84800005 4280306213
-0.0704934 0.15953769 0.84800005 4280371753
-0.069009326 0.15953769 0.84800005 4280437797
-0.067525253 0.15953769 0.84800005 4280175137
-0.066041186 0.15953769 0.84800005 4279913249
-0.064557105 0.15953769 0.84800005 4279912994
-0.063073039 0.15953769 0.84800005 4279979296
-0.061588965 0.15953769 0.84800005 4279912990
-0.059892256 0.15897328 0.84500003 4279847967
-0.058413442 0.15897328 0.84500003 4279977760
-0.056934617 0.15897328 0.84500003 4280174361
-0.055455796 0.15897328 0.84500003 4280568595
-0.05384922 0.15859702 0.84300005 4281026073
-0.052373901 0.15859702 0.84300005 4281489183
-0.050657064 0.15784448 0.83900005 4281946927
-0.049188744 0.15784448 0.83900005 4282542143
-0.04749291 0.15709195 0.83500004 4283136573
-0.045921337 0.15671568 0.83300006 4283333691
-0.04435676 0.15633941 0.83100003 4283598647
-0.042902444 0.15633941 0.83100003 4283529011
-0.037956703 0.14317001 0.76100004 4283527477
-0.03662489 0.14317001 0.76100004 4282934327
-0.035385828 0.14354628 0.76300001 4282341939
-0.034050517 0.14354628 0.76300001 4282276144
-0.032800954 0.14392255 0.76500005 4282209839
-0.03146214 0.14392255 0.76500005 4282012462
-0.030202078 0.14429882 0.76700002 4281815344
-0.02878451 0.14392255 0.76500005 4281551922
-0.027445698 0.14392255 0.76500005 4281354292
-0.14164658 0.14848942 0.78200006 4283857225
-0.13991924 0.14810963 0.78000003 4284057675
-0.13855417 0.14810963 0.78000003 4284126285
-0.13718911 0.14810963 0.78000003 4284191570
-0.13582404 0.14810963 0.78000003 4284454999
-0.1342866 0.14791976 0.77900004 4284781909
-0.13292329 0.14791976 0.77900004 4285044563
-0.13155997 0.14791976 0.77900004 4285373786
-0.13019665 0.14791976 0.77900004 4285833570
-0.12883332 0.14791976 0.77900004 4286292062
-0.12763365 0.14810963 0.78000003 4286026587
-0.12626858 0.14810963 0.78000003 4285764947
-0.12490351 0.14810963 0.78000003 4285502028
-0.12385522 0.14848942 0.78200006 4285305421
-0.12279992 0.14886917 0.78400004 4285367631
-0.12111809 0.14848942 0.78200006 4285503316
-0.11974952 0.14848942 0.78200006 4285765209
-0.11838096 0.14848942 0.78200006 4286095708
-0.1165635 0.14791976 0.77900004 4285177696
-0.11520017 0.14791976 0.77900004 4284256593
-0.11208327 0.14564115 0.76700002 4284121666
-0.11074095 0.14564115 0.76700002 4284055874
-0.10911338 0.14526138 0.76500005 4283990595
-0.10777457 0.14526138 0.76500005 4283990595
-0.10643575 0.14526138 0.76500005 4284121924
-0.10482217 0.14488159 0.76300001 4284322113
-0.10348686 0.14488159 0.76300001 4284784958
-0.10148213 0.14393218 0.75800002 4285238839
-0.10782532 0.15703419 0.82700002 4284837409
-0.10663527 0.15741396 0.82900006 4282340370
-0.10518444 0.15741396 0.82900006 4279913488
-0.10398389 0.15779373 0.83100003 4279381007
-0.10277633 0.1581735 0.83300006 4278925325
-0.10131851 0.1581735 0.83300006 4278988043
-0.10010044 0.15855326 0.83500004 4279120394
-0.098875389 0.15893303 0.83700001 4279186186
-0.097643331 0.1593128 0.83900005 4279251723
-0.096175008 0.1593128 0.83900005 4279580173
-0.094932452 0.15969257 0.84100002 4279974163
-0.093682885 0.16007234 0.84300005 4279974426
-0.092207566 0.16007234 0.84300005 4279974680
-0.090947509 0.1604521 0.84500003 4279974679
-0.08946868 0.1604521 0.84500003 4279974937
-0.087989859 0.1604521 0.84500003 4279844123
-0.086818181 0.16102175 0.84800005 4279778839
-0.085334107 0.16102175 0.84800005 4279844628
-0.083850041 0.16102175 0.84800005 4279910424
-0.082365967 0.16102175 0.84800005 4280042013
-0.080881901 0.16102175 0.84800005 4280238362
-0.079397827 0.16102175 0.84800005 4280173335
-0.078097507 0.16140153 0.85000002 4280173593
-0.076609939 0.16140153 0.85000002 4280043036
-0.075122371 0.16140153 0.85000002 4279977754
-0.073634796 0.16140153 0.85000002 4280174617
-0.072147228 0.16140153 0.85000002 4280436510
-0.070659652 0.16140153 0.85000002 4280436772
-0.069172084 0.16140153 0.85000002 4280502301
-0.067525253 0.16102175 0.84800005 4280043542
-0.066041186 0.16102175 0.84800005 4279649558
-0.064557105 0.16102175 0.84800005 4279584279
-0.063073039 0.16102175 0.84800005 4279584023
-0.061588965 0.16102175 0.84800005 4279256088
-0.060104895 0.16102175 0.84800005 4278994719
-0.058413442 0.1604521 0.84500003 4279581990
-0.056934617 0.1604521 0.84500003 4280242985
-0.055455796 0.1604521 0.84500003 4280768812
-0.053976975 0.1604521 0.84500003 4281296944
-0.052373901 0.16007234 0.84300005 4282744885
-0.050657064 0.1593128 0.83900005 4284250683
-0.049188744 0.1593128 0.83900005 4284647746
-0.047606669 0.15893303 0.83700001 4285038141
-0.046031594 0.15855326 0.83500004 4284184888
-0.044463519 0.1581735 0.83300006 4283396916
-0.039288517 0.14450184 0.76100004 4283066161
-0.037956703 0.14450184 0.76100004 4282737970
-0.03662489 0.14450184 0.76100004 4282408499
-0.035293072 0.14450184 0.76100004 4282145584
-0.034050517 0.14488159 0.76300001 4282080046
-0.032800954 0.14526138 0.76500005 4282079021
-0.03146214 0.14526138 0.76500005 4281881645
-0.030202078 0.14564115 0.76700002 4281749550
-0.028859762 0.14564115 0.76700002 4281617455
-0.027445698 0.14526138 0.76500005 4281551153
-0.026175134 0.14564115 0.76700002 4281943859
-0.1412843 0.1494747 0.78000003 4284123207
-0.13991924 0.1494747 0.78000003 4284783691
-0.13837655 0.14928307 0.77900004 4285374543
-0.13701323 0.14928307 0.77900004 4286028632
-0.13564992 0.14928307 0.77900004 4285833057
-0.1342866 0.14928307 0.77900004 4285635941
-0.13292329 0.14928307 0.77900004 4286030698
-0.13155997 0.14928307 0.77900004 4286492793
-0.13019665 0.14928307 0.77900004 4286427785
-0.12883332 0.14928307 0.77900004 4286431360
-0.12747002 0.14928307 0.77900004 4286229623
-0.12610669 0.14928307 0.77900004 4286034284
-0.12490351 0.1494747 0.78000003 4285900642
-0.12353845 0.1494747 0.78000003 4285772646
-0.12248666 0.14985797 0.78200006 4286032746
-0.12111809 0.14985797 0.78200006 4286366836
-0.11974952 0.14985797 0.78200006 4286560126
-0.11838096 0.14985797 0.78200006 4286761346
-0.11671312 0.1494747 0.78000003 4285509767
-0.11520017 0.14928307 0.77900004 4284328548
-0.11252168 0.14755836 0.77000004 4283927106
-0.11074095 0.14698346 0.76700002 4283596099
-0.10911338 0.14660019 0.76500005 4283661893
-0.10777457 0.14660019 0.76500005 4283727174
-0.10615748 0.14621691 0.76300001 4283859015
-0.10482217 0.14621691 0.76300001 4283991109
-0.1032156 0.14583366 0.76100004 4284322372
-0.10148213 0.14525874 0.75800002 4284718665
-0.10663527 0.15886478 0.82900006 4284057121
-0.10518444 0.15886478 0.82900006 4283333912
-0.10398389 0.15924805 0.83100003 4282803215
-0.10277633 0.15963133 0.83300006 4282274056
-0.10131851 0.15963133 0.83300006 4282009090
-0.10010044 0.16001458 0.83500004 4281740546
-0.098875389 0.16039786 0.83700001 4280824834
-0.097643331 0.16078113 0.83900005 4279904772
-0.096175008 0.16078113 0.83900005 4279644678
-0.095158212 0.16154765 0.84300005 4279449103
-0.093905143 0.16193092 0.84500003 4279317273
-0.092426322 0.16193092 0.84500003 4279187991
-0.090947509 0.16193092 0.84500003 4279186709
-0.089786328 0.16250582 0.84800005 4279187990
-0.088302255 0.16250582 0.84800005 4279121688
-0.086818181 0.16250582 0.84800005 4279057171
-0.085334107 0.16250582 0.84800005 4279056399
-0.083850041 0.16250582 0.84800005 4279123476
-0.082560226 0.16288909 0.85000002 4279253786
-0.081072651 0.16288909 0.85000002 4279451671
-0.079585083 0.16288909 0.85000002 4279319829
-0.078281276 0.16327237 0.85200006 4279255575
-0.076790199 0.16327237 0.85200006 4279189530
-0.075299129 0.16327237 0.85200006 4279190805
-0.073808059 0.16327237 0.85200006 4279320337
-0.072147228 0.16288909 0.85000002 4279518232
-0.070825912 0.16327237 0.85200006 4279714079
-0.069334842 0.16327237 0.85200006 4279976981
-0.067684509 0.16288909 0.85000002 4279977228
-0.066196933 0.16288909 0.85000002 4280040716
-0.064709365 0.16288909 0.85000002 4280763148
-0.063073039 0.16250582 0.84800005 4281548303
-0.061588965 0.16250582 0.84800005 4281553426
-0.060104895 0.16250582 0.84800005 4281552927
-0.058413442 0.16193092 0.84500003 4282278957
-0.056934617 0.16193092 0.84500003 4283068473
-0.055455796 0.16193092 0.84500003 4283004486
-0.053976975 0.16193092 0.84500003 4282942280
-0.052498154 0.16193092 0.84500003 4283466571
-0.050898578 0.16154765 0.84300005 4283993416
-0.044264007 0.14468385 0.75500005 4284055622
-0.042942695 0.14468385 0.75500005 4284186173
-0.04162138 0.14468385 0.75500005 4283527477
-0.040566955 0.14564203 0.76000005 4282935090
-0.037956703 0.14583366 0.76100004 4282605615
-0.03662489 0.14583366 0.76100004 4282342959
-0.035293072 0.14583366 0.76100004 4282080558
-0.034050517 0.14621691 0.76300001 4282079789
-0.032800954 0.14660019 0.76500005 4282079277
-0.03146214 0.14660019 0.76500005 4281881645
-0.030123327 0.14660019 0.76500005 4281749548
-0.028859762 0.14698346 0.76700002 4281486380
-0.027517449 0.14698346 0.76700002 4281289262
-0.026175134 0.14698346 0.76700002 4281746992
-0.1412843 0.15083976 0.78000003 4284452693
-0.13973986 0.15064639 0.77900004 4285507419
-0.13837655 0.15064639 0.77900004 4286691170
-0.13701323 0.15064639 0.77900004 4287932775
-0.13564992 0.15064639 0.77900004 4287213165
-0.1342866 0.15064639 0.77900004 4286555242
-0.13292329 0.15064639 0.77900004 4287081064
-0.13155997 0.15064639 0.77900004 4287604847
-0.13019665 0.15064639 0.77900004 4287085174
-0.12883332 0.15064639 0.77900004 4286554989
-0.12747002 0.15064639 0.77900004 4286426981
-0.12610669 0.15064639 0.77900004 4286291556
-0.12474339 0.15064639 0.77900004 4286293860
-0.12338007 0.15064639 0.77900004 4286293605
-0.12217339 0.15083976 0.78000003 4286755942
-0.12080833 0.15083976 0.78000003 4287214186
-0.11974952 0.15122655 0.78200006 4287347823
-0.11838096 0.15122655 0.78200006 4287476078
-0.11671312 0.15083976 0.78000003 4285903213
-0.11520017 0.15064639 0.77900004 4284389464
-0.11354459 0.1502596 0.77700001 4283793476
-0.11074095 0.14832577 0.76700002 4283202882
-0.10911338 0.147939 0.76500005 4283333952
-0.10777457 0.147939 0.76500005 4283530306
-0.10615748 0.14755222 0.76300001 4283596356
-0.10482217 0.14755222 0.76300001 4283662661
-0.1032156 0.14716548 0.76100004 4283925831
-0.10148213 0.14658532 0.75800002 4284256330
-0.10663527 0.1603156 0.82900006 4285834809
-0.1054382 0.16070236 0.83100003 4286814007
-0.10398389 0.16070236 0.83100003 4286224437
-0.10277633 0.16108914 0.83300006 4285693999
-0.10131851 0.16108914 0.83300006 4285034537
-0.10010044 0.1614759 0.83500004 4284376098
-0.098875389 0.16186267 0.83700001 4282468380
-0.097643331 0.16224945 0.83900005 4280634648
-0.096404269 0.16263621 0.84100002 4279775765
-0.095158212 0.16302298 0.84300005 4278992916
-0.093905143 0.16340975 0.84500003 4278658323
-0.092426322 0.16340975 0.84500003 4278401039
-0.091270402 0.1639899 0.84800005 4278396683
-0.089786328 0.1639899 0.84800005 4278400524
-0.088302255 0.1639899 0.84800005 4278332685
-0.086818181 0.1639899 0.84800005 4278334475
-0.08553537 0.16437666 0.85000002 4278332425
-0.084047794 0.16437666 0.85000002 4278400012
-0.082560226 0.16437666 0.85000002 4278529295
-0.081072651 0.16437666 0.85000002 4278662925
-0.079585083 0.16437666 0.85000002 4278530572
-0.078281276 0.16476344 0.85200006 4278401551
-0.076790199 0.16476344 0.85200006 4278400018
-0.075299129 0.16476344 0.85200006 4278467601
-0.073808059 0.16476344 0.85200006 4278529553
-0.072316982 0.16476344 0.85200006 4278600213
-0.070825912 0.16476344 0.85200006 4278990618
-0.069334842 0.16476344 0.85200006 4279455262
-0.067843772 0.16476344 0.85200006 4279914275
-0.066352695 0.16476344 0.85200006 4280440867
-0.064709365 0.16437666 0.85000002 4281945891
-0.063073039 0.1639899 0.84800005 4283525930
-0.061588965 0.1639899 0.84800005 4283857202
-0.060104895 0.1639899 0.84800005 4284185658
-0.058413442 0.16340975 0.84500003 4285043523
-0.056934617 0.16340975 0.84500003 4285892673
-0.055455796 0.16340975 0.84500003 4285238591
-0.053976975 0.16340975 0.84500003 4284645953
-0.052498154 0.16340975 0.84500003 4284185923
-0.050898578 0.16302298 0.84300005 4283791681
-0.049423255 0.16302298 0.84300005 4283526719
-0.042942695 0.14600515 0.75500005 4283330617
-0.04162138 0.14600515 0.75500005 4282935859
-0.040566955 0.14697208 0.76000005 4282541873
-0.039236892 0.14697208 0.76000005 4282475824
-0.037956703 0.14716548 0.76100004 4282474799
-0.03662489 0.14716548 0.76100004 4282277934
-0.035293072 0.14716548 0.76100004 4282080558
-0.034050517 0.14755222 0.76300001 4282080046
-0.032800954 0.147939 0.76500005 4282079021
-0.03146214 0.147939 0.76500005 4281881900
-0.030202078 0.14832577 0.76700002 4281749547
-0.028897392 0.14851914 0.76800001 4281421099
-0.027553327 0.14851914 0.76800001 4281092141
-0.026209261 0.14851914 0.76800001 4281615664
-0.14246649 0.1520097 0.77900004 4283666000
-0.14110316 0.1520097 0.77900004 4284981859
-0.13973986 0.1520097 0.77900004 4286364268
-0.13837655 0.1520097 0.77900004 4286886005
-0.13701323 0.1520097 0.77900004 4287407991
-0.13564992 0.1520097 0.77900004 4286160761
-0.1342866 0.1520097 0.77900004 4284915055
-0.13292329 0.1520097 0.77900004 4284910694
-0.13122219 0.15161942 0.77700001 4284911460
-0.12986237 0.15161942 0.77700001 4284512867
-0.12850256 0.15161942 0.77700001 4284114523
-0.12714274 0.15161942 0.77700001 4284117588
-0.12578292 0.15161942 0.77700001 4284183389
-0.12474339 0.1520097 0.77900004 4284317287
-0.12338007 0.1520097 0.77900004 4284517477
-0.12201676 0.1520097 0.77900004 4284846435
-0.12080833 0.15220483 0.78000003 4285241185
-0.11944325 0.15220483 0.78000003 4285438560
-0.11838096 0.1525951 0.78200006 4285632601
-0.11671312 0.15220483 0.78000003 4284978515
-0.11520017 0.1520097 0.77900004 4284385100
-0.11281393 0.15064375 0.77200001 4283924550
-0.11074095 0.14966808 0.76700002 4283464769
-0.10911338 0.14927782 0.76500005 4283464508
-0.10777457 0.14927782 0.76500005 4283464767
-0.10615748 0.14888754 0.76300001 4283530306
-0.10482217 0.14888754 0.76300001 4283662150
-0.1032156 0.14849727 0.76100004 4283859530
-0.10148213 0.14791186 0.75800002 4284056651
-0.099891312 0.14752162 0.75600004 4284255565
-0.098568246 0.14752162 0.75600004 4284518735
-0.097116552 0.14732647 0.75500005 4285176146
-0.10277633 0.16254696 0.83300006 4285442390
-0.10131851 0.16254696 0.83300006 4285307217
-0.1003402 0.16332749 0.83700001 4285246788
-0.098875389 0.16332749 0.83700001 4284648759
-0.097643331 0.16371776 0.83900005 4284060462
-0.096404269 0.16410802 0.84100002 4283463717
-0.095158212 0.1644983 0.84300005 4282938393
-0.093905143 0.16488858 0.84500003 4282803982
-0.092754468 0.16547397 0.84800005 4282735112
-0.091270402 0.16547397 0.84800005 4282538754
-0.089786328 0.16547397 0.84800005 4282338306
-0.088510513 0.16586423 0.85000002 4282274819
-0.087022945 0.16586423 0.85000002 4282204163
-0.08553537 0.16586423 0.85000002 4282142211
-0.084245563 0.16625452 0.85200006 4282072323
-0.082754485 0.16625452 0.85200006 4282076420
-0.081454173 0.16664477 0.85400003 4282138627
-0.079772346 0.16625452 0.85200006 4282076931
-0.07846503 0.16664477 0.85400003 4282073862
-0.076970458 0.16664477 0.85400003 4282143498
-0.075475886 0.16664477 0.85400003 4282272013
-0.073981315 0.16664477 0.85400003 4282342929
-0.072486743 0.16664477 0.85400003 4282409491
-0.070825912 0.16625452 0.85200006 4282805013
-0.069334842 0.16625452 0.85200006 4283265063
-0.067843772 0.16625452 0.85200006 4283333434
-0.066352695 0.16625452 0.85200006 4283402042
-0.064861625 0.16625452 0.85200006 4283926331
-0.063073039 0.16547397 0.84800005 4284524614
-0.061588965 0.16547397 0.84800005 4284322130
-0.059892256 0.16488858 0.84500003 4284126806
-0.058136925 0.16410802 0.84100002 4284452186
-0.050533686 0.1463508 0.75000006 4284846409
-0.049221121 0.1463508 0.75000006 4284384313
-0.047908559 0.1463508 0.75000006 4283989562
-0.046595994 0.1463508 0.75000006 4283725628
-0.045404185 0.14674108 0.75200003 4283526970
-0.044264007 0.14732647 0.75500005 4283329848
-0.042942695 0.14732647 0.75500005 4283198004
-0.04162138 0.14732647 0.75500005 4282935345
-0.040353443 0.14752162 0.75600004 4282738480
-0.039133634 0.14791186 0.75800002 4282606896
-0.037956703 0.14849727 0.76100004 4282475311
-0.03662489 0.14849727 0.76100004 4282277934
-0.035293072 0.14849727 0.76100004 4282080558
-0.034050517 0.14888754 0.76300001 4282014255
-0.032800954 0.14927782 0.76500005 4282013485
-0.03146214 0.14927782 0.76500005 4281947180
-0.030202078 0.14966808 0.76700002 4281946155
-0.028972644 0.15025349 0.77000004 4281682986
-0.02762508 0.15025349 0.77000004 4281419565
-0.0265164 0.15161942 0.77700001 4281746737
-0.14210072 0.15297924 0.77700001 4283995471
-0.1407409 0.15297924 0.77700001 4285575768
-0.13938108 0.15297924 0.77700001 4287213922
-0.13837655 0.15337302 0.77900004 4287081069
-0.13701323 0.15337302 0.77900004 4286945377
-0.13564992 0.15337302 0.77900004 4285106774
-0.1342866 0.15337302 0.77900004 4283331156
-0.13258201 0.15297924 0.77700001 4282801490
-0.13122219 0.15297924 0.77700001 4282275922
-0.12986237 0.15297924 0.77700001 4281941074
-0.12850256 0.15297924 0.77700001 4281682257
-0.12714274 0.15297924 0.77700001 4281877073
-0.12578292 0.15297924 0.77700001 4282078287
-0.12442311 0.15297924 0.77700001 4282405966
-0.12338007 0.15337302 0.77900004 4282737489
-0.12201676 0.15337302 0.77900004 4283003221
-0.12080833 0.15356989 0.78000003 4283268181
-0.11944325 0.15356989 0.78000003 4283532885
-0.11838096 0.15396367 0.78200006 4283861842
-0.11671312 0.15356989 0.78000003 4284124496
-0.11520017 0.15337302 0.77900004 4284385355
-0.11325233 0.15258548 0.77500004 4284055367
-0.11074095 0.15101039 0.76700002 4283726658
-0.10911338 0.15061663 0.76500005 4283595069
-0.1074928 0.15022285 0.76300001 4283464256
-0.10615748 0.15022285 0.76300001 4283595587
-0.10482217 0.15022285 0.76300001 4283727430
-0.1032156 0.14982909 0.76100004 4283793737
-0.10148213 0.14923844 0.75800002 4283925578
-0.10015557 0.14923844 0.75800002 4284057419
-0.098568246 0.14884467 0.75600004 4284189261
-0.097245187 0.14884467 0.75600004 4284516943
-0.095795244 0.14864779 0.75500005 4284846674
-0.094473928 0.14864779 0.75500005 4284978006
-0.091223143 0.14766337 0.75000006 4285636177
-0.1003402 0.1647923 0.83700001 4286161993
-0.08859802 0.14766337 0.75000006 4286819906
-0.087052688 0.14726959 0.74800003 4287538242
-0.096404269 0.16557986 0.84100002 4287212099
-0.095158212 0.16597363 0.84300005 4286881342
-0.093905143 0.16636738 0.84500003 4286949945
-0.092754468 0.16695805 0.84800005 4287075385
-0.091270402 0.16695805 0.84800005 4286685498
-0.089998089 0.1673518 0.85000002 4286352438
-0.088510513 0.1673518 0.85000002 4286224178
-0.087022945 0.1673518 0.85000002 4286154289
-0.085736632 0.16774559 0.85200006 4285961009
-0.084443316 0.16813935 0.85400003 4285825584
-0.082948744 0.16813935 0.85400003 4285762864
-0.081454173 0.16813935 0.85400003 4285693998
-0.079959601 0.16813935 0.85400003 4285696301
-0.07846503 0.16813935 0.85400003 4285759535
-0.076970458 0.16813935 0.85400003 4285894449
-0.075475886 0.16813935 0.85400003 4286089268
-0.073981315 0.16813935 0.85400003 4286161207
-0.072486743 0.16813935 0.85400003 4286223162
-0.070992172 0.16813935 0.85400003 4286620734
-0.0694976 0.16813935 0.85400003 4287076419
-0.068003029 0.16813935 0.85400003 4286687049
-0.066352695 0.16774559 0.85200006 4286356291
-0.064861625 0.16774559 0.85200006 4285899326
-0.063073039 0.16695805 0.84800005 4285503812
-0.054326117 0.14726959 0.74800003 4284780363
-0.053017054 0.14726959 0.74800003 4284123212
-0.05170799 0.14726959 0.74800003 4283924046
-0.050398927 0.14726959 0.74800003 4283793219
-0.049221121 0.14766337 0.75000006 4283594553
-0.047908559 0.14766337 0.75000006 4283397944
-0.046595994 0.14766337 0.75000006 4283332152
-0.045404185 0.14805713 0.75200003 4283330615
-0.04414675 0.14825401 0.75300002 4283199031
-0.042942695 0.14864779 0.75500005 4283132468
-0.041676506 0.14884467 0.75600004 4283001138
-0.040353443 0.14884467 0.75600004 4282934833
-0.039133634 0.14923844 0.75800002 4282737968
-0.037906826 0.14963222 0.76000005 4282540591
-0.03662489 0.14982909 0.76100004 4282343470
-0.035293072 0.14982909 0.76100004 4282145839
-0.034050517 0.15022285 0.76300001 4282079792
-0.032800954 0.15061663 0.76500005 4282013486
-0.03146214 0.15061663 0.76500005 4282078509
-0.030241456 0.15120728 0.76800001 4282143020
-0.028897392 0.15120728 0.76800001 4281945900
-0.14346053 0.15433905 0.77700001 4284319056
-0.14210072 0.15433905 0.77700001 4284321359
-0.1407409 0.15433905 0.77700001 4285309006
-0.13938108 0.15433905 0.77700001 4286361178
-0.13802128 0.15433905 0.77700001 4285372006
-0.13666146 0.15433905 0.77700001 4284384844
-0.13530163 0.15433905 0.77700001 4283787315
-0.13394181 0.15433905 0.77700001 4283254328
-0.13258201 0.15433905 0.77700001 4282796350
-0.13122219 0.15433905 0.77700001 4282399552
-0.12986237 0.15433905 0.77700001 4282400834
-0.12850256 0.15433905 0.77700001 4282401608
-0.12714274 0.15433905 0.77700001 4282336590
-0.12578292 0.15433905 0.77700001 4282337601
-0.12442311 0.15433905 0.77700001 4282467637
-0.1230633 0.15433905 0.77700001 4282662718
-0.12201676 0.15473633 0.77900004 4282864711
-0.12065344 0.15473633 0.77900004 4283065928
-0.11944325 0.15493497 0.78000003 4283266634
-0.11807819 0.15493497 0.78000003 4283533899
-0.11671312 0.15493497 0.78000003 4283797069
-0.11520017 0.15473633 0.77900004 4284125258
-0.11354459 0.15433905 0.77700001 4283859272
-0.11160726 0.15354452 0.77300006 4283595331
-0.10911338 0.15195546 0.76500005 4283529278
-0.10777457 0.15195546 0.76500005 4283464001
-0.10615748 0.15155818 0.76300001 4283529796
-0.10482217 0.15155818 0.76300001 4283596102
-0.1032156 0.15116091 0.76100004 4283727944
-0.1017499 0.15096226 0.76000005 4283860041
-0.10015557 0.150565 0.75800002 4283991626
-0.098829009 0.150565 0.75800002 4284123211
-0.097502448 0.150565 0.75800002 4284320077
-0.09592212 0.15016773 0.75600004 4284516943
-0.094223663 0.14957182 0.75300002 4284583505
-0.092782468 0.1493732 0.75200003 4284714833
-0.091223143 0.14897594 0.75000006 4285043794
-0.089670822 0.14857866 0.74800003 4285372239
-0.088243626 0.14838003 0.74700004 4285636173
-0.087052688 0.14857866 0.74800003 4285965655
-0.085972898 0.14897594 0.75000006 4285899618
-0.084660329 0.14897594 0.75000006 4285903203
-0.091700919 0.16923665 0.85200006 4285900146
-0.090209849 0.16923665 0.85200006 4285771626
-0.088927038 0.16963391 0.85400003 4285703010
-0.087432466 0.16963391 0.85400003 4285641057
-0.085937895 0.16963391 0.85400003 4285702752
-0.084443316 0.16963391 0.85400003 4285770846
-0.082948744 0.16963391 0.85400003 4285636445
-0.081454173 0.16963391 0.85400003 4285573722
-0.079959601 0.16963391 0.85400003 4285569624
-0.07846503 0.16963391 0.85400003 4285572952
-0.076970458 0.16963391 0.85400003 4285504345
-0.075475886 0.16963391 0.85400003 4285442651
-0.073981315 0.16963391 0.85400003 4285374558
-0.072486743 0.16963391 0.85400003 4285376866
-0.070992172 0.16963391 0.85400003 4285702247
-0.0694976 0.16963391 0.85400003 4286031967
-0.068003029 0.16963391 0.85400003 4285635928
-0.058019675 0.14798276 0.74500006 4285242701
-0.056868117 0.14838003 0.74700004 4284977986
-0.05563518 0.14857866 0.74800003 4284779587
-0.054326117 0.14857866 0.74800003 4284319300
-0.053158812 0.14897594 0.75000006 4283924035
-0.051846247 0.14897594 0.75000006 4283792195
-0.050398927 0.14857866 0.74800003 4283660094
-0.049221121 0.14897594 0.75000006 4283463226
-0.047908559 0.14897594 0.75000006 4283331639
-0.046720251 0.1493732 0.75200003 4283200308
-0.045404185 0.1493732 0.75200003 4283134005
-0.04414675 0.14957182 0.75300002 4283002166
-0.042942695 0.1499691 0.75500005 4282936117
-0.041676506 0.15016773 0.75600004 4282804276
-0.040460199 0.150565 0.75800002 4282738226
-0.039133634 0.150565 0.75800002 4282541105
-0.037956703 0.15116091 0.76100004 4282409776
-0.03662489 0.15116091 0.76100004 4282277679
-0.035385828 0.15155818 0.76300001 4282211376
-0.034050517 0.15155818 0.76300001 4282210865
-0.032886706 0.15235272 0.76700002 4282210352
-0.031544391 0.15235272 0.76700002 4282078511
-0.030202078 0.15235272 0.76700002 4281946415
-0.028859762 0.15235272 0.76700002 4281683247
-0.14346053 0.15569887 0.77700001 4284451664
-0.14210072 0.15569887 0.77700001 4284650066
-0.14037864 0.1552981 0.77500004 4285044052
-0.13902232 0.1552981 0.77500004 4285502289
-0.13766602 0.1552981 0.77500004 4283661647
-0.1363097 0.1552981 0.77500004 4281820742
-0.13530163 0.15569887 0.77700001 4282534718
-0.13359706 0.1552981 0.77500004 4283254849
-0.13224074 0.1552981 0.77500004 4282861637
-0.13088444 0.1552981 0.77500004 4282532933
-0.12986237 0.15569887 0.77700001 4282861894
-0.12850256 0.15569887 0.77700001 4283189063
-0.12714274 0.15569887 0.77700001 4282861641
-0.12578292 0.15569887 0.77700001 4282597953
-0.12442311 0.15569887 0.77700001 4282595898
-0.1230633 0.15569887 0.77700001 4282596415
-0.12201676 0.15609965 0.77900004 4282727492
-0.12080833 0.15630004 0.78000003 4282929479
-0.11944325 0.15630004 0.78000003 4283065674
-0.11838096 0.1567008 0.78200006 4283267910
-0.11671312 0.15630004 0.78000003 4283535683
-0.11534806 0.15630004 0.78000003 4283861571
-0.11383685 0.15609965 0.77900004 4283661380
-0.11218478 0.15569887 0.77700001 4283529282
-0.10982654 0.15429617 0.77000004 4283463744
-0.10777457 0.15329427 0.76500005 4283463745
-0.10615748 0.15289348 0.76300001 4283464259
-0.10482217 0.15289348 0.76300001 4283464773
-0.1032156 0.15249273 0.76100004 4283596616
-0.1017499 0.15229234 0.76000005 4283793993
-0.10015557 0.15189156 0.75800002 4283926090
-0.098829009 0.15189156 0.75800002 4284057419
-0.097245187 0.15149079 0.75600004 4284123724
-0.09592212 0.15149079 0.75600004 4284189261
-0.094473928 0.15129042 0.75500005 4284190031
-0.092782468 0.15068926 0.75200003 4284255824
-0.091223143 0.15028849 0.75000006 4284452689
-0.089910582 0.15028849 0.75000006 4284649807
-0.088361755 0.14988773 0.74800003 4284518733
-0.087052688 0.14988773 0.74800003 4284388178
-0.085743628 0.14988773 0.74800003 4284648792
-0.084434569 0.14988773 0.74800003 4284978777
-0.083125502 0.14988773 0.74800003 4285042779
-0.09042161 0.1711285 0.85400003 4285176415
-0.088927038 0.1711285 0.85400003 4285175898
-0.087432466 0.1711285 0.85400003 4285177175
-0.085937895 0.1711285 0.85400003 4285438548
-0.084443316 0.1711285 0.85400003 4285766737
-0.082948744 0.1711285 0.85400003 4285635150
-0.081454173 0.1711285 0.85400003 4285503051
-0.079959601 0.1711285 0.85400003 4285436489
-0.07846503 0.1711285 0.85400003 4285370957
-0.076970458 0.1711285 0.85400003 4285042002
-0.075475886 0.1711285 0.85400003 4284781652
-0.073981315 0.1711285 0.85400003 4284649303
-0.072486743 0.1711285 0.85400003 4284519255
-0.070992172 0.1711285 0.85400003 4284780120
-0.060790051 0.14968733 0.74700004 4285043285
-0.059482742 0.14968733 0.74700004 4284582482
-0.058019675 0.14928657 0.74500006 4284189770
-0.056868117 0.14968733 0.74700004 4284122435
-0.055560801 0.14968733 0.74700004 4284056386
-0.054326117 0.14988773 0.74800003 4283858754
-0.053158812 0.15028849 0.75000006 4283727169
-0.051846247 0.15028849 0.75000006 4283661120
-0.050533686 0.15028849 0.75000006 4283594812
-0.049221121 0.15028849 0.75000006 4283397945
-0.047908559 0.15028849 0.75000006 4283266103
-0.046720251 0.15068926 0.75200003 4283135029
-0.045404185 0.15068926 0.75200003 4283002933
-0.04414675 0.15088965 0.75300002 4282871605
-0.042942695 0.15129042 0.75500005 4282805044
-0.041676506 0.15149079 0.75600004 4282673460
-0.040460199 0.15189156 0.75800002 4282607155
-0.039236892 0.15229234 0.76000005 4282410034
-0.037956703 0.15249273 0.76100004 4282278449
-0.036721144 0.15289348 0.76300001 4282277936
-0.035385828 0.15289348 0.76300001 4282276914
-0.034139771 0.15329427 0.76500005 4282342197
-0.032886706 0.15369503 0.76700002 4282407219
-0.031544391 0.15369503 0.76700002 4282079026
-0.030241456 0.15389541 0.76800001 4281815601
-0.028897392 0.15389541 0.76800001 4281487408
-0.14346053 0.15705869 0.77700001 4284649296
-0.14210072 0.15705869 0.77700001 4285045333
-0.14037864 0.15665442 0.77500004 4284781146
-0.13902232 0.15665442 0.77500004 4284583241
-0.13766602 0.15665442 0.77500004 4283525432
-0.13595793 0.15625016 0.77300006 4282534976
-0.13460511 0.15625016 0.77300006 4282796873
-0.1330799 0.15604801 0.77200001 4283124298
-0.13053441 0.15463307 0.76500005 4282926924
-0.12714274 0.15705869 0.77700001 4282926148
-0.12578292 0.15705869 0.77700001 4282465857
-0.12442311 0.15705869 0.77700001 4282465599
-0.1230633 0.15705869 0.77700001 4282465344
-0.12201676 0.15746295 0.77900004 4282596930
-0.12080833 0.15766509 0.78000003 4282793798
-0.11944325 0.15766509 0.78000003 4282798922
-0.11838096 0.15806937 0.78200006 4282870849
-0.11671312 0.15766509 0.78000003 4283202873
-0.11534806 0.15766509 0.78000003 4283535164
-0.11383685 0.15746295 0.77900004 4283529792
-0.11218478 0.15705869 0.77700001 4283528513
-0.1101118 0.15604801 0.77200001 4283462979
-0.10819721 0.15523948 0.76800001 4283397443
-0.10643575 0.15463307 0.76500005 4283398467
-0.10482217 0.15422881 0.76300001 4283465030
-0.1032156 0.15382454 0.76100004 4283596617
-0.1017499 0.1536224 0.76000005 4283728457
-0.10015557 0.15321814 0.75800002 4283860298
-0.098829009 0.15321814 0.75800002 4283991627
-0.097502448 0.15321814 0.75800002 4284057676
-0.09592212 0.15281387 0.75600004 4284123725
-0.094473928 0.15261173 0.75500005 4284123982
-0.092905849 0.15220746 0.75300002 4284190031
-0.091466412 0.15200531 0.75200003 4284321104
-0.089910582 0.15160106 0.75000006 4284517967
-0.08859802 0.15160106 0.75000006 4284452430
-0.087052688 0.15119678 0.74800003 4284451918
-0.085743628 0.15119678 0.74800003 4284517455
-0.084434569 0.15119678 0.74800003 4284582737
-0.083347768 0.15160106 0.75000006 4284714323
-0.082035206 0.15160106 0.75000006 4284845396
-0.088927038 0.17262305 0.85400003 4284715603
-0.087432466 0.17262305 0.85400003 4284650061
-0.085937895 0.17262305 0.85400003 4284517960
-0.084443316 0.17262305 0.85400003 4284388164
-0.082948744 0.17262305 0.85400003 4284057664
-0.081454173 0.17262305 0.85400003 4283794493
-0.079959601 0.17262305 0.85400003 4283464763
-0.07846503 0.17262305 0.85400003 4283204419
-0.06732662 0.15099464 0.74700004 4283598412
-0.066019304 0.15099464 0.74700004 4284058446
-0.064711995 0.15099464 0.74700004 4283992656
-0.063234925 0.15059039 0.74500006 4283992397
-0.061931115 0.15059039 0.74500006 4283662410
-0.060790051 0.15099464 0.74700004 4283402571
-0.059482742 0.15099464 0.74700004 4283662156
-0.058175426 0.15099464 0.74700004 4283926088
-0.056868117 0.15099464 0.74700004 4283859012
-0.05563518 0.15119678 0.74800003 4283858754
-0.054326117 0.15119678 0.74800003 4283727168
-0.053158812 0.15160106 0.75000006 4283661375
-0.051846247 0.15160106 0.75000006 4283529790
-0.050533686 0.15160106 0.75000006 4283463739
-0.049352378 0.15200531 0.75200003 4283332152
-0.048036315 0.15200531 0.75200003 4283200823
-0.046720251 0.15200531 0.75200003 4283068983
-0.045464564 0.15220746 0.75300002 4282937398
-0.044264007 0.15261173 0.75500005 4282805813
-0.042999573 0.15281387 0.75600004 4282739765
-0.041676506 0.15281387 0.75600004 4282673461
-0.040460199 0.15321814 0.75800002 4282672948
-0.039236892 0.1536224 0.76000005 4282540852
-0.037956703 0.15382454 0.76100004 4282409522
-0.036721144 0.15422881 0.76300001 4282408753
-0.035478584 0.15463307 0.76500005 4282473781
-0.034139771 0.15463307 0.76500005 4282538810
-0.032929584 0.15523948 0.76800001 4282604087
-0.031585522 0.15523948 0.76800001 4282275637
-0.030241456 0.15523948 0.76800001 4282012211
-0.028972644 0.15564375 0.77000004 4281683506
-0.14382979 0.15882628 0.77900004 4284847441
-0.14210072 0.15841851 0.77700001 4285503315
-0.14037864 0.15801074 0.77500004 4284583766
-0.13902232 0.15801074 0.77500004 4283723595
-0.13766602 0.15801074 0.77500004 4283453504
-0.13595793 0.15760297 0.77300006 4283256132
-0.13443097 0.15739909 0.77200001 4283124809
-0.13273513 0.1569913 0.77000004 4283058249
-0.13053441 0.15597188 0.76500005 4282992970
-0.12490351 0.15903015 0.78000003 4282335809
-0.12353845 0.15903015 0.78000003 4282401089
-0.12080833 0.15903015 0.78000003 4282728515
-0.11974952 0.15943792 0.78200006 4282597189
-0.11838096 0.15943792 0.78200006 4282471489
-0.11671312 0.15903015 0.78000003 4282805310
-0.11534806 0.15903015 0.78000003 4283199552
-0.11383685 0.15882628 0.77900004 4283329346
-0.11218478 0.15841851 0.77700001 4283526978
-0.1101118 0.15739909 0.77200001 4283396675
-0.10847898 0.1569913 0.77000004 4283331650
-0.10671401 0.15637966 0.76700002 4283398466
-0.10509694 0.15597188 0.76500005 4283464773
-0.1032156 0.15515634 0.76100004 4283531080
-0.1017499 0.15495247 0.76000005 4283662920
-0.10015557 0.15454468 0.75800002 4283795017
-0.098829009 0.15454468 0.75800002 4283991626
-0.097502448 0.15454468 0.75800002 4283992139
-0.09592212 0.15413693 0.75600004 4284057932
-0.094599061 0.15413693 0.75600004 4284123982
-0.09315262 0.15393303 0.75500005 4284189774
-0.091588035 0.15352526 0.75300002 4284255822
-0.089910582 0.15291362 0.75000006 4284386894
-0.08859802 0.15291362 0.75000006 4284452942
-0.087285459 0.15291362 0.75000006 4284583503
-0.085743628 0.15250584 0.74800003 4284387152
-0.084434569 0.15250584 0.74800003 4284190289
-0.083347768 0.15291362 0.75000006 4284321619
-0.081816435 0.15250584 0.74800003 4284518227
-0.080399752 0.15230197 0.74700004 4284453204
-0.078880675 0.1518942 0.74500006 4284452690
-0.085937895 0.17411764 0.85400003 4283595596
-0.073665425 0.1518942 0.74500006 4283071816
-0.072361611 0.1518942 0.74500006 4282544196
-0.071057804 0.1518942 0.74500006 4282085441
-0.069753982 0.1518942 0.74500006 4281555518
-0.068450175 0.1518942 0.74500006 4281103171
-0.067146361 0.1518942 0.74500006 4282220616
-0.065842547 0.1518942 0.74500006 4283401545
-0.064711995 0.15230197 0.74700004 4283401546
-0.063404679 0.15230197 0.74700004 4283464522
-0.062097367 0.15230197 0.74700004 4282605899
-0.060871433 0.15250584 0.74800003 4281822536
-0.059562366 0.15250584 0.74800003 4282738501
-0.058409069 0.15291362 0.75000006 4283725380
-0.057096504 0.15291362 0.75000006 4283726147
-0.055783939 0.15291362 0.75000006 4283726657
-0.054471374 0.15291362 0.75000006 4283661376
-0.053158812 0.15291362 0.75000006 4283661119
-0.051846247 0.15291362 0.75000006 4283464255
-0.050533686 0.15291362 0.75000006 4283332668
-0.049352378 0.15332139 0.75200003 4283267129
-0.048036315 0.15332139 0.75200003 4283200568
-0.046782378 0.15352526 0.75300002 4283003703
-0.045585323 0.15393303 0.75500005 4282871862
-0.044322636 0.15413693 0.75600004 4282806325
-0.043113325 0.15454468 0.75800002 4282739509
-0.041786764 0.15454468 0.75800002 4282738997
-0.040460199 0.15454468 0.75800002 4282738228
-0.039236892 0.15495247 0.76000005 4282671924
-0.037956703 0.15515634 0.76100004 4282605871
-0.036721144 0.15556411 0.76300001 4282605098
-0.035478584 0.15597188 0.76500005 4282670644
-0.034139771 0.15597188 0.76500005 4282735935
-0.032886706 0.15637966 0.76700002 4282866749
-0.031544391 0.15637966 0.76700002 4282538299
-0.030241456 0.15658353 0.76800001 4282208823
-0.028897392 0.15658353 0.76800001 4281880371
-0.027947972 0.15882628 0.77900004 4281616689
-0.14712085 0.16080651 0.78200006 4284120141
-0.14519311 0.1601896 0.77900004 4284255823
-0.14382979 0.1601896 0.77900004 4284782162
-0.14210072 0.15977831 0.77700001 4285309010
-0.14037864 0.15936705 0.77500004 4284251218
-0.13902232 0.15936705 0.77500004 4283257933
-0.13731074 0.15895578 0.77300006 4283191113
-0.13578203 0.15875013 0.77200001 4283190345
-0.13408272 0.15833887 0.77000004 4283123785
-0.13053441 0.15731071 0.76500005 4282926920
-0.12111809 0.16080651 0.78200006 4282335809
-0.11974952 0.16080651 0.78200006 4282268993
-0.11838096 0.16080651 0.78200006 4282268482
-0.11671312 0.16039522 0.78000003 4282601283
-0.11534806 0.16039522 0.78000003 4282932803
-0.11383685 0.1601896 0.77900004 4283065412
-0.11218478 0.15977831 0.77700001 4283198787
-0.1105397 0.15936705 0.77500004 4283265091
-0.10847898 0.15833887 0.77000004 4283331650
-0.10671401 0.15772198 0.76700002 4283397954
-0.10509694 0.15731071 0.76500005 4283464516
-0.10348686 0.15689944 0.76300001 4283530823
-0.1017499 0.15628253 0.76000005 4283662919
-0.10015557 0.15587126 0.75800002 4283794504
-0.098829009 0.15587126 0.75800002 4283991369
-0.097502448 0.15587126 0.75800002 4283991626
-0.09592212 0.15545999 0.75600004 4284057676
-0.094599061 0.15545999 0.75600004 4284123470
-0.09315262 0.15525436 0.75500005 4284189517
-0.091831304 0.15525436 0.75500005 4284255308
-0.090270221 0.15484308 0.75300002 4284386637
-0.088834278 0.15463744 0.75200003 4284452431
-0.087285459 0.15422618 0.75000006 4284518224
-0.085972898 0.15422618 0.75000006 4284386898
-0.084660329 0.15422618 0.75000006 4284256082
-0.083347768 0.15422618 0.75000006 4284387155
-0.081816435 0.1538149 0.74800003 4284518227
-0.080399752 0.15360928 0.74700004 4284452947
-0.079092436 0.15360928 0.74700004 4284387153
-0.077785119 0.15360928 0.74700004 4284255823
-0.076273054 0.153198 0.74500006 4284123727
-0.07496924 0.153198 0.74500006 4283793232
-0.073665425 0.153198 0.74500006 4283463500
-0.072361611 0.153198 0.74500006 4283069513
-0.071057804 0.153198 0.74500006 4282741829
-0.069753982 0.153198 0.74500006 4282346817
-0.068450175 0.153198 0.74500006 4281954883
-0.067146361 0.153198 0.74500006 4282612293
-0.065842547 0.153198 0.74500006 4283270980
-0.064711995 0.15360928 0.74700004 4283334468
-0.063234925 0.153198 0.74500006 4283399496
-0.062097367 0.15360928 0.74700004 4283002188
-0.060871433 0.1538149 0.74800003 4282606661
-0.059562366 0.1538149 0.74800003 4283133246
-0.058409069 0.15422618 0.75000006 4283659328
-0.057096504 0.15422618 0.75000006 4283594818
-0.055783939 0.15422618 0.75000006 4283595329
-0.054471374 0.15422618 0.75000006 4283530305
-0.053158812 0.15422618 0.75000006 4283530304
-0.051846247 0.15422618 0.75000006 4283398720
-0.050668441 0.15463744 0.75200003 4283332925
-0.049352378 0.15463744 0.75200003 4283266618
-0.048036315 0.15463744 0.75200003 4283200569
-0.046782378 0.15484308 0.75300002 4283068984
-0.045585323 0.15525436 0.75500005 4282937654
-0.044322636 0.15545999 0.75600004 4282805813
-0.043113325 0.15587126 0.75800002 4282739253
-0.041786764 0.15587126 0.75800002 4282672950
-0.040566955 0.15628253 0.76000005 4282672437
-0.039236892 0.15628253 0.76000005 4282737460
-0.038056459 0.15689944 0.76300001 4282868268
-0.036817398 0.15731071 0.76500005 4282868004
-0.035571337 0.15772198 0.76700002 4282933556
-0.034362905 0.15833887 0.77000004 4282868037
-0.033101093 0.15875013 0.77200001 4282868291
-0.031791154 0.15895578 0.77300006 4282537537
-0.030438343 0.15895578 0.77300006 4282208058
-0.029160779 0.15936705 0.77500004 4281879604
-0.027947972 0.1601896 0.77900004 4281550898
-0.026618782 0.16039522 0.78000003 4281746481
-0.14712085 0.16217507 0.78200006 4284188237
-0.1453795 0.16176029 0.78000003 4284321107
-0.14382979 0.16155292 0.77900004 4284716633
-0.14210072 0.16113813 0.77700001 4285107538
-0.1407409 0.16113813 0.77700001 4283985484
-0.13902232 0.16072336 0.77500004 4282864714
-0.13731074 0.1603086 0.77300006 4282993992
-0.13578203 0.16010121 0.77200001 4283190087
-0.11974952 0.16217507 0.78200006 4282006588
-0.11868372 0.16258983 0.78400004 4282071358
-0.1170124 0.16217507 0.78200006 4282333248
-0.11534806 0.16176029 0.78000003 4282665793
-0.11398299 0.16176029 0.78000003 4282800962
-0.11247354 0.16155292 0.77900004 4282934594
-0.11082496 0.16113813 0.77700001 4283133506
-0.10890163 0.1603086 0.77300006 4283396929
-0.10740967 0.16010121 0.77200001 4283398208
-0.10509694 0.15864952 0.76500005 4283464259
-0.10348686 0.15823475 0.76300001 4283530566
-0.1017499 0.15761259 0.76000005 4283662407
-0.10041984 0.15761259 0.76000005 4283794504
-0.098829009 0.15719782 0.75800002 4283991113
