# .PCD v0.7 - Point Cloud Data file format
VERSION 0.7
FIELDS x y z rgba
SIZE 4 4 4 4
TYPE F F F U
COUNT 1 1 1 1
WIDTH 999
HEIGHT 1
VIEWPOINT 0 0 0 1 0 0 0
POINTS 999
DATA ascii
0.01949165 -0.09433917 -0.89100003 4285426046
0.021003723 -0.094127409 -0.88900006 4285820532
0.022686429 -0.09465681 -0.89400005 4285491306
0.024251003 -0.09465681 -0.89400005 4285164913
0.02581558 -0.09465681 -0.89400005 4285824377
0.027380154 -0.09465681 -0.89400005 4286478970
0.028944731 -0.09465681 -0.89400005 4285954172
0.030509304 -0.09465681 -0.89400005 4285494652
0.032145634 -0.094868563 -0.89600003 4285298557
0.03371371 -0.094868563 -0.89600003 4285099118
0.035281785 -0.094868563 -0.89600003 4284830304
0.036932115 -0.095080331 -0.89800006 4284573036
0.038503692 -0.095080331 -0.89800006 4285101432
0.040075269 -0.095080331 -0.89800006 4285691255
0.041785974 -0.095397972 -0.90100002 4285626231
0.043362796 -0.095397964 -0.90100002 4285560178
0.045039382 -0.095609725 -0.90300006 4285428334
0.046516448 -0.095397964 -0.90100002 4285295986
0.048306786 -0.095821485 -0.90500003 4285429622
0.050166257 -0.096350878 -0.91000003 4285626998
0.052043222 -0.096880287 -0.91500002 4285495670
0.053644545 -0.096880287 -0.91500002 4285362289
0.055366632 -0.097092047 -0.91700006 4285161580
0.056971457 -0.097092047 -0.91700006 4285031534
0.058576286 -0.097092047 -0.91700006 4285100912
0.060377996 -0.09740968 -0.92000002 4285231988
0.061988074 -0.09740968 -0.92000002 4285362808
0.063390769 -0.097092047 -0.91700006 4285493879
0.065349989 -0.097621441 -0.92200005 4284968567
0.067181453 -0.097939089 -0.92500007 4284443252
0.069320925 -0.098680243 -0.93200004 4285033586
0.070952013 -0.098680243 -0.93200004 4285691767
0.072583087 -0.098680243 -0.93200004 4286021501
0.074453056 -0.098997891 -0.93500006 4286349437
0.07625214 -0.099209651 -0.93700004 4286218877
0.078141354 -0.099527285 -0.94000006 4286086270
0.079956189 -0.099739045 -0.94200003 4286349951
0.082124546 -0.10037433 -0.94800007 4286610557
0.083960384 -0.10058609 -0.95000005 4286347900
0.085893355 -0.10090373 -0.95300007 4286084215
0.087744936 -0.10111549 -0.95500004 4286083954
0.089416273 -0.10111549 -0.95500004 4286085755
0.091373742 -0.10143313 -0.95800006 4286220420
0.093050323 -0.10143313 -0.95800006 4286416259
0.094726905 -0.10143313 -0.95800006 4286415234
0.096101597 -0.10111549 -0.95500004 4286481028
0.097772926 -0.10111549 -0.95500004 4286351494
-0.19892937 -0.098266371 -0.91300005 4283915900
-0.19733155 -0.098266371 -0.91300005 4284837762
-0.19509056 -0.097943477 -0.91000003 4285823358
-0.19349797 -0.097943477 -0.91000003 4285362811
-0.19085097 -0.097405329 -0.90500003 4284903783
-0.18884888 -0.097190075 -0.90300006 4284505940
-0.18726856 -0.097190075 -0.90300006 4284108899
-0.18527696 -0.096974812 -0.90100002 4284639347
-0.18308848 -0.096651927 -0.89800006 4285165684
-0.18151692 -0.096651927 -0.89800006 4284442998
-0.17954455 -0.096436657 -0.89600003 4283720044
-0.17757922 -0.096221402 -0.89400005 4284505187
-0.17601463 -0.096221402 -0.89400005 4285366395
-0.17445007 -0.096221402 -0.89400005 4285825939
-0.17230533 -0.095898509 -0.89100003 4286348425
-0.17036274 -0.095683254 -0.88900006 4285888383
-0.16880691 -0.095683254 -0.88900006 4285493608
-0.1672511 -0.095683254 -0.88900006 4284306002
-0.1653225 -0.095467992 -0.88700002 4283187303
-0.16377017 -0.095467992 -0.88700002 4284968061
-0.16221786 -0.095467992 -0.88700002 4286806904
-0.16012213 -0.095145099 -0.88400006 4286412916
-0.15857506 -0.095145099 -0.88400006 4286083957
-0.1566727 -0.094929837 -0.88200003 4284636279
-0.15512913 -0.094929837 -0.88200003 4283188339
-0.15358555 -0.094929837 -0.88200003 4284901999
-0.15204199 -0.094929837 -0.88200003 4286616451
-0.15049841 -0.094929837 -0.88200003 4286285207
-0.14895484 -0.094929837 -0.88200003 4286021516
-0.14741126 -0.094929837 -0.88200003 4286284161
-0.14586768 -0.094929837 -0.88200003 4286546813
-0.14399685 -0.094714575 -0.88000005 4285360761
-0.14245677 -0.094714575 -0.88000005 4284247178
-0.14091671 -0.094714575 -0.88000005 4285694619
-0.13905986 -0.094499312 -0.87800002 4287207825
-0.13752328 -0.094499312 -0.87800002 4286612872
-0.13598672 -0.094499312 -0.87800002 4286023047
-0.13445014 -0.094499312 -0.87800002 4285365127
-0.13245942 -0.094176427 -0.87500006 4284710257
-0.13062882 -0.093961164 -0.87300003 4284768348
-0.12880524 -0.093745902 -0.87100005 4284902006
-0.12728092 -0.093745895 -0.87100005 4285562257
-0.12575659 -0.093745895 -0.87100005 4286284164
-0.12423228 -0.093745895 -0.87100005 4286348151
-0.12270795 -0.093745895 -0.87100005 4286477689
-0.12118363 -0.093745895 -0.87100005 4285625467
-0.11965931 -0.093745895 -0.87100005 4284836460
-0.11840624 -0.093961157 -0.87300003 4285098333
-0.11661065 -0.093745895 -0.87100005 4285427309
-0.11508634 -0.093745895 -0.87100005 4285692285
-0.11356202 -0.093745895 -0.87100005 4285954429
-0.11203769 -0.093745895 -0.87100005 4286151550
-0.11051337 -0.093745895 -0.87100005 4286413439
-0.1092393 -0.093961157 -0.87300003 4284967552
-0.10746472 -0.093745895 -0.87100005 4283521136
-0.10618366 -0.093961157 -0.87300003 4284310625
-0.10441607 -0.093745895 -0.87100005 4285163630
-0.10289175 -0.093745895 -0.87100005 4285428604
-0.10136743 -0.093745895 -0.87100005 4285754750
-0.0998431 -0.093745895 -0.87100005 4286019969
-0.098318785 -0.093745895 -0.87100005 4286348923
-0.096794456 -0.093745895 -0.87100005 4285816181
-0.095270135 -0.093745895 -0.87100005 4285290363
-0.093530543 -0.093530633 -0.86900002 4285426817
-0.092009723 -0.093530633 -0.86900002 4285627775
-0.090488903 -0.093530633 -0.86900002 4285691006
-0.088968076 -0.093530633 -0.86900002 4285755516
-0.087447256 -0.093530633 -0.86900002 4285297787
-0.085926428 -0.093530633 -0.86900002 4284904562
-0.084599867 -0.093745895 -0.87100005 4283910249
-0.082884781 -0.093530633 -0.86900002 4282929265
-0.081551224 -0.093745895 -0.87100005 4284772986
-0.080026895 -0.093745895 -0.87100005 4286609529
-0.078502573 -0.093745895 -0.87100005 4286083961
-0.076978251 -0.093745895 -0.87100005 4285623929
-0.075280666 -0.093530633 -0.86900002 4285690489
-0.073759839 -0.093530633 -0.86900002 4285821294
-0.072239019 -0.093530633 -0.86900002 4284769891
-0.070718199 -0.093530633 -0.86900002 4283716711
-0.069038115 -0.093315378 -0.86700004 4284573292
-0.067365043 -0.093100123 -0.86500007 4285491563
-0.065851219 -0.093100123 -0.86500007 4285360491
-0.064114258 -0.09277723 -0.86200005 4285229421
-0.062605686 -0.09277723 -0.86200005 4285033584
-0.061097115 -0.09277723 -0.86200005 4284903018
-0.05958854 -0.09277723 -0.86200005 4284312165
-0.058079965 -0.09277723 -0.86200005 4283786863
-0.05657139 -0.09277723 -0.86200005 4284839545
-0.055062819 -0.09277723 -0.86200005 4285955449
-0.053554248 -0.09277723 -0.86200005 4285559417
-0.052045677 -0.09277723 -0.86200005 4285230711
-0.050537102 -0.09277723 -0.86200005 4284968565
-0.049028531 -0.09277723 -0.86200005 4284772970
-0.04751996 -0.09277723 -0.86200005 4284506207
-0.046011385 -0.09277723 -0.86200005 4284311414
-0.04450281 -0.09277723 -0.86200005 4285165966
-0.042994238 -0.09277723 -0.86200005 4286088325
-0.041485667 -0.092777222 -0.86200005 4285822333
-0.040116228 -0.093100116 -0.86500007 4285559937
-0.038691655 -0.09331537 -0.86700004 4285561478
-0.037174329 -0.09331537 -0.86700004 4285564788
-0.035657007 -0.09331537 -0.86700004 4284637027
-0.034218434 -0.093530625 -0.86900002 4283720315
-0.032697614 -0.093530625 -0.86900002 4285234580
-0.031176792 -0.093530625 -0.86900002 4286746250
-0.029655967 -0.093530625 -0.86900002 4286348161
-0.0281999 -0.093745887 -0.87100005 4285954188
-0.026675576 -0.093745887 -0.87100005 4286284695
-0.025151253 -0.093745887 -0.87100005 4286679670
-0.023626929 -0.093745887 -0.87100005 4285559381
-0.022102606 -0.093745887 -0.87100005 4284505447
-0.020578284 -0.093745887 -0.87100005 4285100409
-0.01905396 -0.093745887 -0.87100005 4285757555
-0.017529635 -0.093745887 -0.87100005 4285559661
-0.016042063 -0.093961149 -0.87300003 4285362290
-0.014547492 -0.094176412 -0.87500006 4285362808
-0.013060794 -0.094499297 -0.87800002 4285361521
-0.011484844 -0.094176412 -0.87500006 4284768619
-0.0099876467 -0.094499297 -0.87800002 4284179058
-0.0084510716 -0.094499297 -0.87800002 4284838521
-0.0069302488 -0.09471456 -0.88000005 4285494650
-0.0053901747 -0.09471456 -0.88000005 4285560699
-0.0038501001 -0.09471456 -0.88000005 4285693828
-0.002310026 -0.09471456 -0.88000005 4285562253
-0.0007699519 -0.09471456 -0.88000005 4285498503
0.00077012234 -0.09471456 -0.88000005 4285494401
0.0023101964 -0.09471456 -0.88000005 4285563518
0.0038502705 -0.09471456 -0.88000005 4285627772
0.0053903451 -0.09471456 -0.88000005 4285693050
0.0069304192 -0.09471456 -0.88000005 4285560184
0.0084704924 -0.09471456 -0.88000005 4285493112
0.010010567 -0.09471456 -0.88000005 4284704377
0.011576893 -0.094929822 -0.88200003 4283980394
0.013120468 -0.094929822 -0.88200003 4284769884
0.014697295 -0.095145084 -0.88400006 4285557350
0.016244369 -0.095145084 -0.88400006 4285426033
0.01785182 -0.095467977 -0.88700002 4285294708
0.019447898 -0.095683239 -0.88900006 4285426551
0.02095647 -0.095467977 -0.88700002 4285622889
0.022559548 -0.095683239 -0.88900006 4284900699
0.024169624 -0.095898494 -0.89100003 4284245097
0.02572895 -0.095898494 -0.89100003 4285100920
0.027288275 -0.095898494 -0.89100003 4286021244
0.028847601 -0.095898494 -0.89100003 4285757312
0.030406924 -0.095898494 -0.89100003 4285493889
0.032073881 -0.096221387 -0.89400005 4285363586
0.033638455 -0.096221387 -0.89400005 4285298284
0.035203032 -0.096221387 -0.89400005 4285096279
0.036767606 -0.096221387 -0.89400005 4284963175
0.038503692 -0.096651912 -0.89800006 4285362296
0.040075269 -0.096651912 -0.89800006 4285757304
0.041646842 -0.096651912 -0.89800006 4285560185
0.043218419 -0.096651904 -0.89800006 4285429366
0.044939626 -0.09697479 -0.90100002 4285034100
0.046516448 -0.09697479 -0.90100002 4284706420
0.048093278 -0.09697479 -0.90100002 4285034869
0.049780361 -0.097190052 -0.90300006 4285429877
0.051474441 -0.097405307 -0.90500003 4285494389
0.053527292 -0.098266348 -0.91300005 4285559668
0.055125117 -0.098266348 -0.91300005 4285361012
0.056847204 -0.09848161 -0.91500002 4285163379
0.058448527 -0.09848161 -0.91500002 4285165170
0.060049854 -0.09848161 -0.91500002 4285233270
0.06178594 -0.098696873 -0.91700006 4285429370
0.063390769 -0.098696873 -0.91700006 4285626234
0.065208234 -0.099019758 -0.92000002 4285559675
0.066963561 -0.099235021 -0.92200005 4285491571
0.069172174 -0.10009607 -0.93000007 4285624427
0.070799753 -0.10009607 -0.93000007 4285757045
0.072583087 -0.10031132 -0.93200004 4285954943
0.074214168 -0.10031132 -0.93200004 4286218117
0.076089382 -0.10063422 -0.93500006 4286152844
0.077725708 -0.10063422 -0.93500006 4286088070
0.079786435 -0.10117237 -0.94000006 4286218113
0.081604771 -0.10138763 -0.94200003 4286413952
0.083783627 -0.10203341 -0.94800007 4286216319
0.085172318 -0.10171052 -0.94500005 4286018427
0.087285548 -0.10224867 -0.95000005 4285887352
0.089229017 -0.10257156 -0.95300007 4285757818
0.091087602 -0.10278682 -0.95500004 4285890429
0.093050323 -0.10310971 -0.95800006 4286087551
0.094726905 -0.10310971 -0.95800006 4286152322
0.096403487 -0.10310971 -0.95800006 4286283145
0.098080061 -0.10310971 -0.95800006 4286349712
-0.19827572 -0.099536054 -0.91000003 4285031795
-0.19625087 -0.099317305 -0.90800005 4285625981
-0.19466178 -0.099317305 -0.90800005 4286215291
-0.1924348 -0.098989159 -0.90500003 4285625721
-0.19042921 -0.098770402 -0.90300006 4285034605
-0.18843061 -0.098551631 -0.90100002 4285296482
-0.18685378 -0.098551631 -0.90100002 4285557354
-0.18466006 -0.0982235 -0.89800006 4285430131
-0.18308848 -0.0982235 -0.89800006 4285362289
-0.18111263 -0.098004729 -0.89600003 4284180336
-0.17954455 -0.098004729 -0.89600003 4282994537
-0.17698331 -0.097457834 -0.89100003 4283314274
-0.17542398 -0.097457834 -0.89100003 4283655284
-0.17308412 -0.097020306 -0.88700002 4284511879
-0.1715318 -0.097020306 -0.88700002 4285363841
-0.16997947 -0.097020306 -0.88700002 4285100668
-0.1678575 -0.096692175 -0.88400006 4284900971
-0.16631043 -0.096692175 -0.88400006 4284628571
-0.16476335 -0.096692175 -0.88400006 4284374897
-0.16321628 -0.096692175 -0.88400006 4285894024
-0.16166919 -0.096692175 -0.88400006 4287398528
-0.16012213 -0.096692175 -0.88400006 4286742649
-0.15821628 -0.096473411 -0.88200003 4286085753
-0.1566727 -0.096473411 -0.88200003 4285298042
-0.15477736 -0.096254654 -0.88000005 4284507765
-0.1532373 -0.096254654 -0.88000005 4286021233
-0.15169722 -0.096254654 -0.88000005 4287595645
-0.15015714 -0.096254654 -0.88000005 4286808201
-0.14861707 -0.096254654 -0.88000005 4286020995
-0.14707701 -0.096254654 -0.88000005 4286021246
-0.14553691 -0.096254654 -0.88000005 4286017657
-0.14399685 -0.096254654 -0.88000005 4284633973
-0.14245677 -0.096254654 -0.88000005 4283324284
-0.14091671 -0.096254654 -0.88000005 4284704899
-0.13905986 -0.09603589 -0.87800002 4286084738
-0.13752328 -0.09603589 -0.87800002 4285426818
-0.13552207 -0.095707752 -0.87500006 4284772993
-0.13399075 -0.095707752 -0.87500006 4283719296
-0.13215666 -0.095488988 -0.87300003 4282733679
-0.13032956 -0.095270231 -0.87100005 4283116382
-0.12850948 -0.095051467 -0.86900002 4283523701
-0.12698865 -0.09505146 -0.86900002 4284708236
-0.12575659 -0.095270224 -0.87100005 4285889156
-0.12423228 -0.095270224 -0.87100005 4286217340
-0.12242618 -0.09505146 -0.86900002 4286545534
-0.12118363 -0.095270224 -0.87100005 4284639360
-0.11965931 -0.095270224 -0.87100005 4282803572
-0.11813498 -0.095270224 -0.87100005 4283781993
-0.11661065 -0.095270224 -0.87100005 4284772211
-0.11508634 -0.095270224 -0.87100005 4285101438
-0.11356202 -0.095270224 -0.87100005 4285429888
-0.11203769 -0.095270224 -0.87100005 4285889666
-0.11051337 -0.095270224 -0.87100005 4286347905
-0.10898905 -0.095270224 -0.87100005 4283979649
-0.10721795 -0.09505146 -0.86900002 4281686648
-0.1059404 -0.095270224 -0.87100005 4283062383
-0.10441607 -0.095270224 -0.87100005 4284509814
-0.10289175 -0.095270224 -0.87100005 4284902525
-0.10113467 -0.09505146 -0.86900002 4285296253
-0.0998431 -0.095270224 -0.87100005 4285427838
-0.098093018 -0.09505146 -0.86900002 4285620850
-0.096572191 -0.09505146 -0.86900002 4285016423
-0.095051371 -0.09505146 -0.86900002 4284434802
-0.093530543 -0.09505146 -0.86900002 4284110462
-0.091797963 -0.094832703 -0.86700004 4283789438
-0.090280645 -0.094832703 -0.86700004 4284640894
-0.088763319 -0.094832703 -0.86700004 4285494145
-0.087245993 -0.094832703 -0.86700004 4284905861
-0.085926428 -0.09505146 -0.86900002 4284374123
-0.084405601 -0.09505146 -0.86900002 4282909778
-0.082884781 -0.09505146 -0.86900002 4281551466
-0.081363961 -0.09505146 -0.86900002 4283789698
-0.080026895 -0.095270224 -0.87100005 4286085246
-0.078502573 -0.095270224 -0.87100005 4285755771
-0.076801494 -0.09505146 -0.86900002 4285428348
-0.075280666 -0.09505146 -0.86900002 4285297021
-0.073590092 -0.094832703 -0.86700004 4285165418
-0.072072767 -0.094832703 -0.86700004 4283918936
-0.070555441 -0.094832703 -0.86700004 4282737000
-0.068878859 -0.09461394 -0.86500007 4284050552
-0.067365043 -0.09461394 -0.86500007 4285361780
-0.065622829 -0.094285801 -0.86200005 4285163889
-0.064114258 -0.094285801 -0.86200005 4284967794
-0.062605686 -0.094285801 -0.86200005 4284836979
-0.061097115 -0.094285801 -0.86200005 4284705895
-0.05958854 -0.094285801 -0.86200005 4283656540
-0.058079965 -0.094285801 -0.86200005 4282673518
-0.05657139 -0.094285801 -0.86200005 4283986048
-0.055062819 -0.094285801 -0.86200005 4285298812
-0.053554248 -0.094285801 -0.86200005 4285100153
-0.052045677 -0.094285801 -0.86200005 4284902262
-0.050537102 -0.094285801 -0.86200005 4284637555
-0.049028531 -0.094285801 -0.86200005 4284373348
-0.04751996 -0.094285801 -0.86200005 4283251286
-0.046011385 -0.094285801 -0.86200005 4282209128
-0.04450281 -0.094285801 -0.86200005 4283392122
-0.042994238 -0.094285801 -0.86200005 4284574584
-0.041485667 -0.094285794 -0.86200005 4284769143
-0.040116224 -0.094613932 -0.86500007 4285032569
-0.038602397 -0.094613932 -0.86500007 4284441467
-0.037088577 -0.094613932 -0.86500007 4283916131
-0.035657007 -0.094832696 -0.86700004 4283840332
-0.034139685 -0.094832696 -0.86700004 4283782245
-0.03262236 -0.094832696 -0.86700004 4284905087
-0.031176792 -0.095051453 -0.86900002 4286085502
-0.029655967 -0.095051453 -0.86900002 4286018429
-0.028135145 -0.095051453 -0.86900002 4286019972
-0.026614323 -0.095051453 -0.86900002 4286614667
-0.0250935 -0.095051453 -0.86900002 4287267190
-0.023626929 -0.095270216 -0.87100005 4286739298
-0.022051852 -0.095051453 -0.86900002 4286279536
-0.020578284 -0.095270216 -0.87100005 4286349950
-0.01905396 -0.095270216 -0.87100005 4286413432
-0.017529635 -0.095270216 -0.87100005 4285887859
-0.016042063 -0.095488973 -0.87300003 4285363066
-0.014514239 -0.095488973 -0.87300003 4285168257
-0.012986416 -0.095488973 -0.87300003 4285033589
-0.011458592 -0.095488973 -0.87300003 4284173929
-0.0099535203 -0.095707737 -0.87500006 4283327344
-0.0084510716 -0.096035875 -0.87800002 4284314999
-0.0069144978 -0.096035875 -0.87800002 4285297528
-0.0053779236 -0.096035875 -0.87800002 4285361785
-0.0038413499 -0.096035875 -0.87800002 4285428092
-0.0023047759 -0.096035875 -0.87800002 4284836224
-0.00076995179 -0.096254639 -0.88000005 4284246131
0.00077012245 -0.096254639 -0.88000005 4284897638
0.0023049463 -0.096035875 -0.87800002 4285623406
0.0038415203 -0.096035875 -0.87800002 4285823863
0.005378094 -0.096035875 -0.87800002 4286020215
0.0069146683 -0.096035875 -0.87800002 4286020984
0.0084704934 -0.096254639 -0.88000005 4286086266
0.010010567 -0.096254639 -0.88000005 4285628796
0.011550643 -0.096254639 -0.88000005 4285231728
0.013090717 -0.096254639 -0.88000005 4285823077
0.014664043 -0.096473396 -0.88200003 4286477165
0.016207617 -0.096473396 -0.88200003 4285951093
0.017791443 -0.09669216 -0.88400006 4285492346
0.019338518 -0.09669216 -0.88400006 4285428863
0.020838339 -0.096473396 -0.88200003 4285428084
0.022432666 -0.09669216 -0.88400006 4284375401
0.024061119 -0.097020291 -0.88700002 4283327600
0.025671197 -0.097239062 -0.88900006 4284444024
0.027227022 -0.097239062 -0.88900006 4285560698
0.028782846 -0.097239062 -0.88900006 4285494397
0.030338671 -0.097239062 -0.88900006 4285494653
0.03196625 -0.097457819 -0.89100003 4285494653
0.033525575 -0.097457819 -0.89100003 4285493361
0.035203032 -0.097785965 -0.89400005 4285425509
0.036767606 -0.097785965 -0.89400005 4285360750
0.038417939 -0.098004714 -0.89600003 4285627768
0.039986014 -0.098004714 -0.89600003 4285888375
0.041646842 -0.098223485 -0.89800006 4285559159
0.043218419 -0.098223478 -0.89800006 4285296244
0.044789996 -0.098223478 -0.89800006 4284703345
0.046361569 -0.098223478 -0.89800006 4284114542
0.048093278 -0.098551609 -0.90100002 4284639084
0.0496701 -0.098551609 -0.90100002 4285230704
0.05124693 -0.098551609 -0.90100002 4285493364
0.05305827 -0.098989137 -0.90500003 4285821557
0.054823231 -0.099317282 -0.90800005 4285559414
0.05672295 -0.099864177 -0.91300005 4285295987
0.058320772 -0.099864177 -0.91300005 4285229680
0.059918605 -0.099864177 -0.91300005 4285232251
0.061516427 -0.099864177 -0.91300005 4285496198
0.063252509 -0.10008293 -0.91500002 4285824130
0.064995602 -0.1003017 -0.91700006 4286218622
0.066818304 -0.10062984 -0.92000002 4286609271
0.068800285 -0.10117675 -0.92500007 4286216305
0.070571363 -0.1013955 -0.92700005 4285822840
0.072427332 -0.10172364 -0.93000007 4285954943
0.074054904 -0.10172364 -0.93000007 4286086275
0.075845242 -0.10194241 -0.93200004 4286087047
0.077725708 -0.10227054 -0.93500006 4286086787
0.079362042 -0.10227054 -0.93500006 4286152320
0.081431516 -0.10281745 -0.94000006 4286218110
0.083253354 -0.10303621 -0.94200003 4286085757
0.084901929 -0.10303621 -0.94200003 4286018683
0.087101787 -0.10369249 -0.94800007 4285755257
0.088760868 -0.10369249 -0.94800007 4285494393
0.090896845 -0.10423939 -0.95300007 4285627002
0.092758931 -0.10445815 -0.95500004 4285758333
0.094726905 -0.10478629 -0.95800006 4285889408
0.096403487 -0.10478629 -0.95800006 4286086020
0.098080061 -0.10478629 -0.95800006 4286348936
-0.19942902 -0.10090638 -0.90800005 4285229150
-0.19783995 -0.10090638 -0.90800005 4285094763
-0.19625087 -0.10090638 -0.90800005 4285361017
-0.19401863 -0.10057298 -0.90500003 4285689976
-0.19200954 -0.10035072 -0.90300006 4285034104
-0.18937479 -0.099795073 -0.89800006 4284444020
-0.18780321 -0.099795073 -0.89800006 4284901745
-0.18623164 -0.099795073 -0.89800006 4285363058
-0.18424879 -0.099572808 -0.89600003 4285363060
-0.18268071 -0.099572808 -0.89600003 4285362799
-0.18070836 -0.099350557 -0.89400005 4284440682
-0.17854263 -0.099017158 -0.89100003 4283516262
-0.17658605 -0.0987949 -0.88900006 4284504418
-0.17463645 -0.098572634 -0.88700002 4285492590
-0.17249873 -0.09823925 -0.88400006 4285560187
-0.17095165 -0.09823925 -0.88400006 4285691258
-0.16940457 -0.09823925 -0.88400006 4285232761
-0.16747773 -0.098016985 -0.88200003 4284840046
-0.16593415 -0.098016985 -0.88200003 4284768356
-0.16439058 -0.098016985 -0.88200003 4284707963
-0.162847 -0.098016985 -0.88200003 4285562771
-0.16130343 -0.098016985 -0.88200003 4286481544
-0.15975985 -0.098016985 -0.88200003 4286151806
-0.15785752 -0.097794726 -0.88000005 4285891709
-0.15631744 -0.097794726 -0.88000005 4284508797
-0.15477736 -0.097794726 -0.88000005 4283196280
-0.1532373 -0.097794726 -0.88000005 4284575348
-0.15135245 -0.097572461 -0.87800002 4285956215
-0.15015714 -0.097794726 -0.88000005 4285758331
-0.14861707 -0.097794726 -0.88000005 4285627003
-0.14707701 -0.097794726 -0.88000005 4285494140
-0.14520615 -0.097572461 -0.87800002 4285427062
-0.14366958 -0.097572461 -0.87800002 4284696689
-0.14213301 -0.097572461 -0.87800002 4283971694
-0.14059643 -0.097572461 -0.87800002 4285228908
-0.13858472 -0.097239077 -0.87500006 4286541428
-0.1370534 -0.097239077 -0.87500006 4286347389
-0.1352123 -0.097016811 -0.87300003 4286151291
-0.13399075 -0.097239077 -0.87500006 4285360761
-0.13185389 -0.096794553 -0.87100005 4284566380
-0.13032956 -0.096794553 -0.87100005 4285161056
-0.12850948 -0.096572287 -0.86900002 4285759604
-0.12698865 -0.09657228 -0.86900002 4286021000
-0.12546784 -0.09657228 -0.86900002 4286347397
-0.12394701 -0.09657228 -0.86900002 4286942082
-0.12242618 -0.09657228 -0.86900002 4287537540
-0.12090537 -0.09657228 -0.86900002 4286350470
-0.11965931 -0.096794546 -0.87100005 4285231230
-0.11813498 -0.096794546 -0.87100005 4285954422
-0.11661065 -0.096794546 -0.87100005 4286744443
-0.11508634 -0.096794546 -0.87100005 4286678144
-0.11330125 -0.09657228 -0.86900002 4286675587
-0.11178043 -0.09657228 -0.86900002 4287204486
-0.1102596 -0.09657228 -0.86900002 4287799172
-0.10873878 -0.09657228 -0.86900002 4286217603
-0.10721795 -0.09657228 -0.86900002 4284703616
-0.10569713 -0.09657228 -0.86900002 4285561981
-0.10417631 -0.09657228 -0.86900002 4286418301
-0.10265549 -0.09657228 -0.86900002 4285888894
-0.10113467 -0.09657228 -0.86900002 4285362556
-0.099613838 -0.09657228 -0.86900002 4285822075
-0.098093018 -0.09657228 -0.86900002 4286281066
-0.09634994 -0.096350029 -0.86700004 4285749849
-0.094832614 -0.096350029 -0.86700004 4285289066
-0.093315288 -0.096350029 -0.86700004 4285756283
-0.091797963 -0.096350029 -0.86700004 4286218620
-0.090280645 -0.096350029 -0.86700004 4286150782
-0.088763319 -0.096350029 -0.86700004 4286151046
-0.087245993 -0.096350029 -0.86700004 4286284943
-0.085728675 -0.096350029 -0.86700004 4286480997
-0.084211349 -0.096350029 -0.86700004 4285289788
-0.082694031 -0.096350029 -0.86700004 4284114531
-0.081363961 -0.09657228 -0.86900002 4285626251
-0.079843141 -0.09657228 -0.86900002 4287137412
-0.078322314 -0.09657228 -0.86900002 4286479229
-0.076801494 -0.09657228 -0.86900002 4285823359
-0.075107418 -0.096350029 -0.86700004 4285822849
-0.073420331 -0.096127771 -0.86500007 4285887079
-0.072072767 -0.096350029 -0.86700004 4285229645
-0.070392691 -0.096127771 -0.86500007 4284636265
-0.068878859 -0.096127771 -0.86500007 4285361797
-0.0671314 -0.095794372 -0.86200005 4286151806
-0.065622829 -0.095794372 -0.86200005 4285690744
-0.064114258 -0.095794372 -0.86200005 4285297271
-0.062605686 -0.095794372 -0.86200005 4285165687
-0.061097115 -0.095794372 -0.86200005 4285034341
-0.05958854 -0.095794372 -0.86200005 4284968532
-0.057945207 -0.095572107 -0.86000001 4284901486
-0.056440134 -0.095572107 -0.86000001 4285299848
-0.054935064 -0.095572107 -0.86000001 4285694849
-0.053429991 -0.095572107 -0.86000001 4285429114
-0.051924918 -0.095572107 -0.86000001 4285231478
-0.050419848 -0.095572107 -0.86000001 4285032562
-0.048914775 -0.095572107 -0.86000001 4284832607
-0.047409698 -0.095572107 -0.86000001 4284371789
-0.046011385 -0.095794372 -0.86200005 4283976794
-0.04450281 -0.095794372 -0.86200005 4284573287
-0.042994238 -0.095794372 -0.86200005 4285163628
-0.041485667 -0.095794365 -0.86200005 4285360497
-0.040116224 -0.096127763 -0.86500007 4285622384
-0.038602397 -0.096127763 -0.86500007 4285558896
-0.037088577 -0.096127763 -0.86500007 4285553747
-0.035574753 -0.096127763 -0.86500007 4284955446
-0.034139685 -0.096350022 -0.86700004 4284433744
-0.03262236 -0.096350022 -0.86700004 4285033579
-0.03110504 -0.096350022 -0.86700004 4285690226
-0.029587718 -0.096350022 -0.86700004 4285624185
-0.028070394 -0.096350022 -0.86700004 4285624444
-0.026614323 -0.096572272 -0.86900002 4285692287
-0.0250935 -0.096572272 -0.86900002 4285759351
-0.023572676 -0.096572272 -0.86900002 4284838255
-0.022051852 -0.096572272 -0.86900002 4283985273
-0.02053103 -0.096572272 -0.86900002 4284904836
-0.01905396 -0.096794538 -0.87100005 4285824383
-0.017529635 -0.096794538 -0.87100005 4285428602
-0.016005311 -0.096794538 -0.87100005 4285100162
-0.014514239 -0.097016796 -0.87300003 4285167498
-0.012986416 -0.097016796 -0.87300003 4285234553
-0.011458592 -0.097016796 -0.87300003 4284638824
-0.0099535203 -0.097239062 -0.87500006 4284049519
-0.0084221968 -0.097239062 -0.87500006 4284707190
-0.006890872 -0.097239062 -0.87500006 4285363831
-0.0053595481 -0.097239062 -0.87500006 4285559160
-0.0038282247 -0.097239062 -0.87500006 4285755509
-0.0022969008 -0.097239062 -0.87500006 4285493619
-0.00076820172 -0.097572446 -0.87800002 4285226079
0.00076837227 -0.097572446 -0.87800002 4285555275
0.0022970708 -0.097239062 -0.87500006 4285946719
0.0038283947 -0.097239062 -0.87500006 4286150515
0.0053597186 -0.097239062 -0.87500006 4286346870
0.0068910425 -0.097239062 -0.87500006 4285888889
0.008451242 -0.097572446 -0.87800002 4285498236
0.0099878171 -0.097572446 -0.87800002 4284773760
0.011550643 -0.097794712 -0.88000005 4284053367
0.013090717 -0.097794712 -0.88000005 4284838255
0.014630791 -0.097794712 -0.88000005 4285628020
0.016170865 -0.097794712 -0.88000005 4285492858
0.017751191 -0.09801697 -0.88200003 4285426304
0.019294765 -0.09801697 -0.88200003 4285560199
0.020791087 -0.097794712 -0.88000005 4285695871
0.022381913 -0.09801697 -0.88200003 4284968055
0.023925489 -0.09801697 -0.88200003 4284244343
0.025526816 -0.098239236 -0.88400006 4285297528
0.02707389 -0.098239236 -0.88400006 4286414969
0.028620966 -0.098239236 -0.88400006 4286086266
0.03027042 -0.098572619 -0.88700002 4285823865
0.031894498 -0.098794885 -0.88900006 4285888889
0.03345032 -0.098794885 -0.88900006 4286017910
0.0350849 -0.099017143 -0.89100003 4285754739
0.036644228 -0.099017143 -0.89100003 4285492342
0.038332183 -0.099350542 -0.89400005 4285888633
0.039896756 -0.099350542 -0.89400005 4286281847
0.04155409 -0.099572793 -0.89600003 4285822069
0.043218419 -0.099795051 -0.89800006 4285362289
0.044789996 -0.099795051 -0.89800006 4284901230
0.046361569 -0.099795051 -0.89800006 4284507241
0.047933146 -0.099795051 -0.89800006 4284704612
0.049504723 -0.099795051 -0.89800006 4284967787
0.05124693 -0.10012843 -0.90100002 4285230963
0.052941017 -0.1003507 -0.90300006 4285494134
0.054642096 -0.10057296 -0.90500003 4285297273
0.056536559 -0.10112861 -0.91000003 4285165939
0.058129136 -0.10112861 -0.91000003 4285032814
0.059721712 -0.10112861 -0.91000003 4284904576
0.061314289 -0.10112861 -0.91000003 4285298834
0.063114256 -0.10146201 -0.91300005 4285759370
0.064712085 -0.10146201 -0.91300005 4285955714
0.066309914 -0.10146201 -0.91300005 4286217341
0.067684598 -0.10112861 -0.91000003 4285822328
0.07041911 -0.10279557 -0.92500007 4285429116
0.072427332 -0.10335122 -0.93000007 4285692032
0.074054904 -0.10335122 -0.93000007 4285954689
0.075682484 -0.10335122 -0.93000007 4285954690
0.077476315 -0.10357348 -0.93200004 4285954433
0.079107404 -0.10357348 -0.93200004 4285955200
0.080998361 -0.10390688 -0.93500006 4285958270
0.082811452 -0.10412914 -0.93700004 4286087036
0.08472167 -0.10446253 -0.94000006 4286281851
0.08636675 -0.10446253 -0.94000006 4285756027
0.088479981 -0.10501818 -0.94500005 4285230969
0.090610705 -0.10557383 -0.95000005 4285494392
0.092758931 -0.10612947 -0.95500004 4285757563
0.094726905 -0.10646287 -0.95800006 4285888895
0.096403487 -0.10646287 -0.95800006 4286085247
0.098080061 -0.10646287 -0.95800006 4286480256
0.099756643 -0.10646287 -0.95800006 4286875774
0.10143322 -0.10646287 -0.95800006 4286150524
0.10310981 -0.10646287 -0.95800006 4285425265
0.10478639 -0.10646287 -0.95800006 4285426535
-0.19877012 -0.10215681 -0.90500003 4284440422
-0.19718628 -0.10215681 -0.90500003 4285229166
-0.19560245 -0.10215681 -0.90500003 4285230454
-0.19358987 -0.10193105 -0.90300006 4285230196
-0.19158426 -0.10170529 -0.90100002 4284574322
-0.18937479 -0.10136665 -0.89800006 4283916143
-0.18738493 -0.10114089 -0.89600003 4284569196
-0.18581685 -0.10114089 -0.89600003 4285229680
-0.18424879 -0.10114089 -0.89600003 4285297012
-0.18227294 -0.10091513 -0.89400005 4285362290
-0.18010196 -0.10057648 -0.89100003 4284704368
-0.17814186 -0.10035072 -0.88900006 4284048242
-0.17618877 -0.10012496 -0.88700002 4285694581
-0.1740458 -0.099786326 -0.88400006 4287396983
-0.17210844 -0.099560566 -0.88200003 4286741626
-0.17056488 -0.099560566 -0.88200003 4286085753
-0.16902129 -0.099560566 -0.88200003 4285431161
-0.16747773 -0.099560566 -0.88200003 4284771431
-0.16593415 -0.099560566 -0.88200003 4284896853
-0.16439058 -0.099560566 -0.88200003 4285031786
-0.162847 -0.099560566 -0.88200003 4285298815
-0.16130343 -0.099560566 -0.88200003 4285625723
-0.1593976 -0.099334799 -0.88000005 4285688696
-0.15785752 -0.099334799 -0.88000005 4285754225
-0.15631744 -0.099334799 -0.88000005 4283780714
-0.15442559 -0.099109039 -0.87800002 4281881454
-0.15288901 -0.099109039 -0.87800002 4283128435
-0.15135245 -0.099109039 -0.87800002 4284379766
-0.14981587 -0.099109039 -0.87800002 4284839034
-0.14827931 -0.099109039 -0.87800002 4285297275
-0.14674272 -0.099109039 -0.87800002 4285033085
-0.14520615 -0.099109039 -0.87800002 4284831861
-0.14366958 -0.099109039 -0.87800002 4284688750
-0.14213301 -0.099109039 -0.87800002 4284637818
-0.14011604 -0.098770402 -0.87500006 4285828743
-0.13858472 -0.098770402 -0.87500006 4287006340
-0.13674012 -0.098544635 -0.87300003 4287270274
-0.1352123 -0.098544635 -0.87300003 4287596423
-0.13368447 -0.098544635 -0.87300003 4287006860
-0.13185389 -0.098318882 -0.87100005 4286412676
-0.13003029 -0.098093115 -0.86900002 4287202940
-0.12850948 -0.098093115 -0.86900002 4287990147
-0.12698865 -0.098093107 -0.86900002 4287399819
-0.12546784 -0.098093107 -0.86900002 4286810508
-0.12394701 -0.098093107 -0.86900002 4287666830
-0.12242618 -0.098093107 -0.86900002 4288584332
-0.12090537 -0.098093107 -0.86900002 4288125323
-0.11938453 -0.098093107 -0.86900002 4287728265
-0.11813498 -0.098318875 -0.87100005 4288191368
-0.11634289 -0.098093107 -0.86900002 4288715148
-0.11482207 -0.098093107 -0.86900002 4288322704
-0.11330125 -0.098093107 -0.86900002 4287992463
-0.11178043 -0.098093107 -0.86900002 4288585359
-0.1102596 -0.098093107 -0.86900002 4289240716
-0.10873878 -0.098093107 -0.86900002 4288453514
-0.10721795 -0.098093107 -0.86900002 4287728524
-0.10569713 -0.098093107 -0.86900002 4288063886
-0.10417631 -0.098093107 -0.86900002 4288385926
-0.10241923 -0.097867347 -0.86700004 4286937982
-0.1009019 -0.097867347 -0.86700004 4285494911
-0.099384576 -0.097867347 -0.86700004 4286217600
-0.097867258 -0.097867347 -0.86700004 4287003766
-0.09634994 -0.097867347 -0.86700004 4286544748
-0.094832614 -0.097867347 -0.86700004 4286152064
-0.093315288 -0.097867347 -0.86700004 4287407509
-0.091797963 -0.097867347 -0.86700004 4288709518
-0.090280645 -0.097867347 -0.86700004 4287724423
-0.088558562 -0.097641587 -0.86500007 4286809233
-0.087044738 -0.097641587 -0.86500007 4287733148
-0.085530922 -0.097641587 -0.86500007 4288643707
-0.084211349 -0.097867347 -0.86700004 4287654747
-0.082503274 -0.097641587 -0.86500007 4286673016
-0.08098945 -0.097641587 -0.86500007 4287398549
-0.07965938 -0.097867347 -0.86700004 4288185995
-0.078322314 -0.098093107 -0.86900002 4287201409
-0.076447979 -0.097641587 -0.86500007 4286217860
-0.074934155 -0.097641587 -0.86500007 4286416008
-0.073420331 -0.097641587 -0.86500007 4286675827
-0.071906507 -0.097641587 -0.86500007 4286608222
-0.070392691 -0.097641587 -0.86500007 4286541687
-0.068878859 -0.097641587 -0.86500007 4286740368
-0.0671314 -0.097302943 -0.86200005 4287003525
-0.065622829 -0.097302943 -0.86200005 4286347131
-0.064114258 -0.097302943 -0.86200005 4285690748
-0.062605686 -0.097302943 -0.86200005 4285494654
-0.061097112 -0.097302943 -0.86200005 4285363316
-0.05945028 -0.097077183 -0.86000001 4286217323
-0.057945207 -0.097077183 -0.86000001 4287136381
-0.056440134 -0.097077183 -0.86000001 4286617231
-0.054935064 -0.097077183 -0.86000001 4286153347
-0.053429991 -0.097077183 -0.86000001 4285886583
-0.051924918 -0.097077183 -0.86000001 4285624693
-0.050419848 -0.097077183 -0.86000001 4285429363
-0.048914775 -0.097077183 -0.86000001 4285295725
-0.047409698 -0.097077183 -0.86000001 4285493096
-0.045904625 -0.097077183 -0.86000001 4285756018
-0.044399556 -0.097077183 -0.86000001 4285761404
-0.042894483 -0.097077183 -0.86000001 4285823096
-0.041485664 -0.097302936 -0.86200005 4286018420
-0.040116224 -0.09764158 -0.86500007 4286282357
-0.038602397 -0.09764158 -0.86500007 4286749302
-0.037088577 -0.09764158 -0.86500007 4287192162
-0.035574753 -0.09764158 -0.86500007 4286125647
-0.034060933 -0.09764158 -0.86500007 4285094249
-0.03262236 -0.09786734 -0.86700004 4285237123
-0.03110504 -0.09786734 -0.86700004 4285365117
-0.029519465 -0.09764158 -0.86500007 4285295223
-0.028070394 -0.09786734 -0.86700004 4285229691
-0.02655307 -0.09786734 -0.86700004 4284771455
-0.025035748 -0.09786734 -0.86700004 4284313965
-0.023518424 -0.09786734 -0.86700004 4283000668
-0.022001101 -0.09786734 -0.86700004 4281754475
-0.020483777 -0.09786734 -0.86700004 4283460219
-0.019010207 -0.0980931 -0.86900002 4285231481
-0.017489383 -0.0980931 -0.86900002 4285033335
-0.016005311 -0.098318867 -0.87100005 4284837756
-0.014480988 -0.098318867 -0.87100005 4285167234
-0.012956665 -0.098318867 -0.87100005 4285493616
-0.011432341 -0.098318867 -0.87100005 4285097566
-0.0099307681 -0.09854462 -0.87300003 4284770410
-0.0084029455 -0.09854462 -0.87300003 4285100919
-0.0068751215 -0.09854462 -0.87300003 4285428601
-0.0053472975 -0.09854462 -0.87300003 4285756284
-0.003819474 -0.09854462 -0.87300003 4286085760
-0.0022916503 -0.09854462 -0.87300003 4286157188
-0.00076557673 -0.098770387 -0.87500006 4286283128
0.00076574704 -0.098770387 -0.87500006 4286282093
0.0022918202 -0.09854462 -0.87300003 4286284412
0.0038283949 -0.098770387 -0.87500006 4286484876
0.005347467 -0.09854462 -0.87300003 4286743170
0.006875291 -0.09854462 -0.87300003 4285821304
0.0084223663 -0.098770387 -0.87500006 4284903032
0.0099878171 -0.099109024 -0.87800002 4283914873
0.01152439 -0.099109024 -0.87800002 4282933102
0.013090717 -0.099334784 -0.88000005 4283848804
0.014630791 -0.099334784 -0.88000005 4284770157
0.016170865 -0.099334784 -0.88000005 4285032310
0.017710939 -0.099334784 -0.88000005 4285360762
0.019251013 -0.099334784 -0.88000005 4285624703
0.020791087 -0.099334784 -0.88000005 4285952884
0.022331163 -0.099334784 -0.88000005 4285557098
0.023925489 -0.099560551 -0.88200003 4285163887
0.025469063 -0.099560551 -0.88200003 4286218869
0.027012637 -0.099560551 -0.88200003 4287267194
0.028620966 -0.099786311 -0.88400006 4286743167
0.03027042 -0.10012495 -0.88700002 4286218108
0.031822741 -0.10012495 -0.88700002 4286415737
0.033375069 -0.10012495 -0.88700002 4286610042
0.035006147 -0.10035071 -0.88900006 4286149755
0.03656197 -0.10035071 -0.88900006 4285691521
0.038332183 -0.10091511 -0.89400005 4286218375
0.039896756 -0.10091511 -0.89400005 4286742143
0.04155409 -0.10114087 -0.89600003 4286085240
0.043218419 -0.10136663 -0.89800006 4285428085
0.044789996 -0.10136663 -0.89800006 4285163890
0.046361569 -0.10136663 -0.89800006 4284966765
0.047933146 -0.10136663 -0.89800006 4284836457
0.049504723 -0.10136663 -0.89800006 4284706159
0.051076297 -0.10136663 -0.89800006 4284969333
0.052823756 -0.10170527 -0.90100002 4285231734
0.054521341 -0.10193103 -0.90300006 4285166711
0.056225926 -0.10215679 -0.90500003 4285099118
0.058001384 -0.10249543 -0.90800005 4284831590
0.059590463 -0.10249543 -0.90800005 4284639351
0.061179534 -0.10249543 -0.90800005 4285167241
0.062906869 -0.10272119 -0.91000003 4285758083
0.064499445 -0.10272119 -0.91000003 4285824381
0.066092022 -0.10272119 -0.91000003 4285888888
0.067684598 -0.10272119 -0.91000003 4285492339
0.069657817 -0.10328559 -0.91500002 4285100664
0.071259148 -0.10328559 -0.91500002 4285430141
0.073816016 -0.10464016 -0.92700005 4285823357
0.07543835 -0.10464016 -0.92700005 4285823614
0.077310063 -0.1049788 -0.93000007 4285888377
0.078937642 -0.1049788 -0.93000007 4285756532
0.080565222 -0.1049788 -0.93000007 4285692535
0.082369559 -0.10520456 -0.93200004 4286088315
0.084451281 -0.10576896 -0.93700004 4286545018
0.08636675 -0.10610761 -0.94000006 4285756794
0.088011831 -0.10610761 -0.94000006 4284969337
0.090133809 -0.106672 -0.94500005 4285363064
0.092079021 -0.10701065 -0.94800007 4285757050
0.094232507 -0.10757505 -0.95300007 4285954685
0.096101597 -0.10780081 -0.95500004 4286151294
0.097772926 -0.10780081 -0.95500004 4286611072
0.099756651 -0.10813946 -0.95800006 4287071363
0.10143323 -0.10813946 -0.95800006 4286547847
0.10310981 -0.10813946 -0.95800006 4286084472
0.1047864 -0.10813946 -0.95800006 4285820009
-0.19833085 -0.10351138 -0.90300006 4284901230
-0.19631474 -0.10328212 -0.90100002 4285692528
-0.19473791 -0.10328212 -0.90100002 4285428083
-0.19316109 -0.10328212 -0.90100002 4285230191
-0.19094637 -0.10293823 -0.89800006 4284834412
-0.18895301 -0.10270897 -0.89600003 4284502377
-0.18738493 -0.10270897 -0.89600003 4285228391
-0.1854021 -0.1024797 -0.89400005 4285952109
-0.18322061 -0.10213581 -0.89100003 4285691508
-0.18166129 -0.10213581 -0.89100003 4285496181
-0.17969769 -0.10190655 -0.88900006 4284376438
-0.17713995 -0.1013334 -0.88400006 4283326591
-0.17559287 -0.1013334 -0.88400006 4284707464
-0.17365202 -0.10110414 -0.88200003 4286154881
-0.17171818 -0.10087488 -0.88000005 4285888890
-0.17017812 -0.10087488 -0.88000005 4285627257
-0.16863804 -0.10087488 -0.88000005 4284772473
-0.16709796 -0.10087488 -0.88000005 4283983968
-0.16555789 -0.10087488 -0.88000005 4284438855
-0.16401783 -0.10087488 -0.88000005 4284961369
-0.16247773 -0.10087488 -0.88000005 4285295723
-0.16093767 -0.10087488 -0.88000005 4285624687
-0.1593976 -0.10087488 -0.88000005 4285624435
-0.15785752 -0.10087488 -0.88000005 4285689957
-0.15631744 -0.10087488 -0.88000005 4284372311
-0.15442559 -0.10064562 -0.87800002 4283056740
-0.15288901 -0.10064562 -0.87800002 4284443250
-0.15135245 -0.10064562 -0.87800002 4285823861
-0.14981587 -0.10064562 -0.87800002 4285691769
-0.14827931 -0.10064562 -0.87800002 4285559675
-0.14674272 -0.10064562 -0.87800002 4285230718
-0.14520615 -0.10064562 -0.87800002 4284899956
-0.14317869 -0.10030172 -0.87500006 4285425515
-0.14164737 -0.10030172 -0.87500006 4286028422
-0.14011604 -0.10030172 -0.87500006 4286288802
-0.13826793 -0.10007246 -0.87300003 4286615956
-0.13674012 -0.10007246 -0.87300003 4286745223
-0.13490254 -0.099843197 -0.87100005 4286942867
-0.13337821 -0.099843197 -0.87100005 4286416288
-0.13155112 -0.099613935 -0.86900002 4285892252
-0.13003029 -0.099613935 -0.86900002 4286546329
-0.12821372 -0.099384673 -0.86700004 4287207572
-0.12698865 -0.099613927 -0.86900002 4286810255
-0.12546784 -0.099613927 -0.86900002 4286418580
-0.12394701 -0.099613927 -0.86900002 4286876570
-0.12242618 -0.099613927 -0.86900002 4287338389
-0.12090537 -0.099613927 -0.86900002 4286152848
-0.11938453 -0.099613927 -0.86900002 4284974485
-0.11786372 -0.099613927 -0.86900002 4285893275
-0.11634289 -0.099613927 -0.86900002 4286818205
-0.11482207 -0.099613927 -0.86900002 4286616224
-0.11330125 -0.099613927 -0.86900002 4286485916
-0.11178043 -0.099613927 -0.86900002 4287141017
-0.1102596 -0.099613927 -0.86900002 4287865493
-0.10873878 -0.099613927 -0.86900002 4286547089
-0.1069712 -0.099384665 -0.86700004 4285236888
-0.10545388 -0.099384665 -0.86700004 4286024608
-0.10393655 -0.099384665 -0.86700004 4286815631
-0.10218297 -0.099155411 -0.86500007 4286152318
-0.10066915 -0.099155411 -0.86500007 4285493634
-0.099155322 -0.099155411 -0.86500007 4285822854
-0.097641498 -0.099155411 -0.86500007 4286219138
-0.096127681 -0.099155411 -0.86500007 4285560191
-0.09461385 -0.099155411 -0.86500007 4284908695
-0.093315288 -0.099384665 -0.86700004 4285890480
-0.09158621 -0.099155411 -0.86500007 4286868640
-0.090072386 -0.099155411 -0.86500007 4286608272
-0.088558562 -0.099155411 -0.86500007 4286349468
-0.087044738 -0.099155411 -0.86500007 4286546601
-0.085234277 -0.098811515 -0.86200005 4286807954
-0.083725706 -0.098811515 -0.86200005 4285819515
-0.082217135 -0.098811515 -0.86200005 4284903821
-0.08098945 -0.099155411 -0.86500007 4285823904
-0.079475619 -0.099155411 -0.86500007 4286812563
-0.077961802 -0.099155411 -0.86500007 4286348422
-0.076182835 -0.098811515 -0.86200005 4285889674
-0.074934155 -0.099155411 -0.86500007 4285889167
-0.073165692 -0.098811515 -0.86200005 4285957759
-0.071657121 -0.098811515 -0.86200005 4285491568
-0.07014855 -0.098811515 -0.86200005 4285102214
-0.068639971 -0.098811515 -0.86200005 4285691548
-0.0671314 -0.098811515 -0.86200005 4286284685
-0.065470569 -0.098582253 -0.86000001 4285821822
-0.064114258 -0.098811515 -0.86200005 4285427330
-0.06246043 -0.098582253 -0.86000001 4285100166
-0.060955353 -0.098582253 -0.86000001 4284773252
-0.05945028 -0.098582253 -0.86000001 4285362819
-0.057945207 -0.098582253 -0.86000001 4286025868
-0.056440134 -0.098582253 -0.86000001 4285826710
-0.054935064 -0.098582253 -0.86000001 4285694341
-0.053429991 -0.098582253 -0.86000001 4285559413
-0.051924918 -0.098582253 -0.86000001 4285427572
-0.050419848 -0.098582253 -0.86000001 4285231220
-0.04880102 -0.098352991 -0.85800004 4285100412
-0.047299445 -0.098352991 -0.85800004 4285231236
-0.045904625 -0.098582253 -0.86000001 4285433738
-0.044399556 -0.098582253 -0.86000001 4285497489
-0.042894483 -0.098582253 -0.86000001 4285562756
-0.041389409 -0.098582245 -0.86000001 4285757048
-0.040116224 -0.099155404 -0.86500007 4285953914
-0.038602397 -0.099155404 -0.86500007 4286479740
-0.037088577 -0.099155404 -0.86500007 4287063410
-0.035574753 -0.099155404 -0.86500007 4286340201
-0.034060933 -0.099155404 -0.86500007 4285629826
-0.032547109 -0.099155404 -0.86500007 4285959323
-0.031033289 -0.099155404 -0.86500007 4286287240
-0.029519465 -0.099155404 -0.86500007 4285822069
-0.028005639 -0.099155404 -0.86500007 4285358970
-0.026491817 -0.099155404 -0.86500007 4285822079
-0.025035748 -0.099384658 -0.86700004 4286280548
-0.023518424 -0.099384658 -0.86700004 4285098570
-0.021950349 -0.099155404 -0.86500007 4283978334
-0.020483777 -0.099384658 -0.86700004 4284902770
-0.018966455 -0.099384658 -0.86700004 4285887859
-0.017449133 -0.099384658 -0.86700004 4285558900
-0.015968559 -0.09961392 -0.86900002 4285230711
-0.014447736 -0.09961392 -0.86900002 4285494394
-0.012956665 -0.099843182 -0.87100005 4285820519
-0.011432341 -0.099843182 -0.87100005 4284900181
-0.0099080177 -0.099843182 -0.87100005 4283982182
-0.0084029455 -0.10007244 -0.87300003 4284706424
-0.006875121 -0.10007244 -0.87300003 4285428604
-0.0053472971 -0.10007244 -0.87300003 4285559425
-0.003819474 -0.10007244 -0.87300003 4285756811
-0.0022916503 -0.10007244 -0.87300003 4285825429
-0.00076382677 -0.10007244 -0.87300003 4285895058
0.00076399685 -0.10007244 -0.87300003 4285892496
0.0022918202 -0.10007244 -0.87300003 4285965210
0.003819644 -0.10007244 -0.87300003 4286223525
0.0053474675 -0.10007244 -0.87300003 4286484878
0.0068752915 -0.10007244 -0.87300003 4285954679
0.0084223673 -0.10030171 -0.87500006 4285427316
0.0099878171 -0.1006456 -0.87800002 4285032562
0.01152439 -0.1006456 -0.87800002 4284699493
0.013060965 -0.1006456 -0.87800002 4285293657
0.014597539 -0.1006456 -0.87800002 4285882982
0.016134111 -0.1006456 -0.87800002 4285753971
0.017710939 -0.10087486 -0.88000005 4285622645
0.019207262 -0.1006456 -0.87800002 4285886583
0.020743836 -0.1006456 -0.87800002 4286213482
0.022331163 -0.10087486 -0.88000005 4284900189
0.023871237 -0.10087486 -0.88000005 4283653224
0.025469063 -0.10110413 -0.88200003 4284903539
0.027012637 -0.10110413 -0.88200003 4286153083
0.028556213 -0.10110413 -0.88200003 4285954948
0.03016804 -0.10133339 -0.88400006 4285824895
0.031715114 -0.10133339 -0.88400006 4285889146
0.033262186 -0.10133339 -0.88400006 4286022526
0.034927391 -0.10167728 -0.88700002 4285690755
0.036479719 -0.10167728 -0.88700002 4285364364
0.0381178 -0.10190654 -0.88900006 4285824918
0.039673623 -0.10190654 -0.88900006 4286286217
0.041322201 -0.10213579 -0.89100003 4285889404
0.043025907 -0.10247968 -0.89400005 4285495161
0.04469024 -0.10270894 -0.89600003 4285230710
0.046258315 -0.10270894 -0.89600003 4285032050
0.047826391 -0.10270894 -0.89600003 4284705134
0.049394466 -0.10270894 -0.89600003 4284444786
0.050962541 -0.10270894 -0.89600003 4284838263
0.052647874 -0.10293821 -0.89800006 4285297526
0.054400586 -0.10328209 -0.90100002 4285363318
0.055977408 -0.10328209 -0.90100002 4285494890
0.057681996 -0.10351136 -0.90300006 4285295199
0.05926232 -0.10351136 -0.90300006 4285162095
0.060977403 -0.10374061 -0.90500003 4285559936
0.062768616 -0.10408451 -0.90800005 4286019452
0.064357691 -0.10408451 -0.90800005 4285889400
0.065946765 -0.10408451 -0.90800005 4285825907
0.067535847 -0.10408451 -0.90800005 4285559662
0.069277175 -0.10431377 -0.91000003 4285362036
0.070869751 -0.10431377 -0.91000003 4285691258
0.073019736 -0.10511618 -0.91700006 4286019962
0.075031452 -0.10568933 -0.92200005 4285888379
0.077060677 -0.10626248 -0.92700005 4285822578
0.078683004 -0.10626248 -0.92700005 4285493609
0.08030533 -0.10626248 -0.92700005 4285164401
0.082192801 -0.10660638 -0.93000007 4285691514
0.084271029 -0.10717953 -0.93500006 4286218618
0.085907355 -0.10717953 -0.93500006 4285757050
0.087730937 -0.10740878 -0.93700004 4285296505
0.089656912 -0.10775268 -0.94000006 4285493880
0.091496244 -0.10798194 -0.94200003 4285756793
0.093441464 -0.10832584 -0.94500005 4285888635
0.095397189 -0.10866974 -0.94800007 4286085501
0.097261027 -0.10889899 -0.95000005 4286348416
0.099235997 -0.10924289 -0.95300007 4286613129
0.10111558 -0.10947214 -0.95500004 4286350738
0.10310981 -0.10981604 -0.95800006 4286152575
0.1047864 -0.10981604 -0.95800006 4285690732
0.10646298 -0.10981604 -0.95800006 4285297005
-0.19991116 -0.10509171 -0.90300006 4284701802
-0.19789156 -0.10485893 -0.90100002 4285428333
-0.1956611 -0.1045098 -0.89800006 4286149487
-0.19408952 -0.1045098 -0.89800006 4285690226
-0.19251794 -0.1045098 -0.89800006 4285295214
-0.19094637 -0.1045098 -0.89800006 4285228138
-0.18853125 -0.10404428 -0.89400005 4285164403
-0.18696667 -0.10404428 -0.89400005 4285956220
-0.18477994 -0.10369513 -0.89100003 4286740857
-0.18280934 -0.10346238 -0.88900006 4286152055
-0.18125352 -0.10346238 -0.88900006 4285623916
-0.17929342 -0.1032296 -0.88700002 4284109921
-0.17713995 -0.10288047 -0.88400006 4282668654
-0.17519559 -0.10264771 -0.88200003 4283785340
-0.17325826 -0.10241495 -0.88000005 4284968568
-0.17171818 -0.10241495 -0.88000005 4285098100
